0.26479793 0.50363016 0.06236095 0.779928 0.001376 -0.625868
0.45903850 -0.88603663 0.17860886 0.057337 0.918733 -0.390695
0.27384883 1.48856795 -0.27060643 0.943946 0.293883 -0.150327
-0.39477125 1.82556522 -0.49331212 -0.720907 0.101723 0.685525
-0.38029301 1.80220056 -0.47416589 -0.830427 -0.066491 0.553146
0.28896815 0.14355613 0.49470207 -0.084876 0.117431 0.989447
0.43253782 1.87903702 -0.49585238 0.431876 -0.668658 -0.605293
0.05820584 0.24399634 -0.01142592 0.763041 -0.185026 -0.619302
0.23559853 0.24409091 0.52888232 0.247307 -0.020508 0.968720
0.25871667 0.29638916 0.51933336 0.279835 0.143265 0.949298
0.12676927 1.20433378 -0.86511517 0.746113 0.505644 -0.433174
0.12802951 1.20759642 -0.85755825 0.743175 0.556973 -0.370771
-0.33984035 0.17270541 0.01354282 0.110420 0.014213 -0.993783
-0.32645419 0.16437174 0.01529684 0.226626 0.039993 -0.973160
-0.33446869 0.16552797 0.01393315 0.141672 0.030601 -0.989441
-0.52787846 -0.30885747 0.08250094 0.806442 -0.043629 -0.589702
0.35673842 0.46231452 0.13971639 0.510870 0.750700 -0.418881
-0.55104917 0.35790503 0.31604159 -0.704461 0.701507 0.107811
0.42549437 -1.05112112 0.60111475 0.595263 -0.332504 0.731508
-0.12161947 1.18072271 -0.84828353 -0.931771 -0.115621 -0.344143
0.25281805 1.81324613 -0.39071018 -0.236459 0.606024 0.759488
0.08130005 0.06187049 0.21952604 -0.562529 -0.826768 -0.004086
0.07671957 0.06550471 0.22272649 -0.510714 -0.859361 0.025876
-0.23469752 1.58132875 -0.29014298 -0.740783 0.634734 -0.219895
-0.78369570 -0.19949126 -0.05502521 -0.157283 -0.069772 -0.985086
-0.75318795 -0.18698284 -0.06307138 -0.190593 -0.110868 -0.975388
-0.52397174 -1.02715325 0.26916620 0.791453 -0.214448 -0.572376
0.89684224 1.48179150 -0.32356462 -0.734884 0.670084 -0.104563
-0.50746506 0.40786341 0.23712611 -0.806243 0.485018 -0.338718
-0.75214237 1.29427779 -0.23398972 0.135572 0.984997 -0.106778
-0.73741543 1.31729174 -0.17550062 0.221721 0.970813 -0.091444
-0.77675736 -0.17308524 -0.05636259 -0.320946 0.102543 -0.941530
0.58856916 1.07344854 -0.13922007 -0.428406 0.025200 -0.903235
0.31429863 0.25557154 0.50159335 0.570058 -0.023465 0.821270
0.89822584 1.37966692 -0.13761318 -0.421393 0.637920 0.644582
0.33573779 0.45085725 0.09932590 0.419406 0.738484 -0.527958
-0.97834307 1.30499983 -0.66300523 0.739360 -0.064856 -0.670180
0.23965123 1.35339141 -0.32736659 0.410517 -0.887245 0.210408
-1.00485516 1.24013388 -0.68589288 0.604629 -0.141827 -0.783778
0.54533923 1.13364446 -0.12707675 0.334069 0.089174 -0.938321
-0.35855630 0.71618587 -0.05398080 -0.279364 -0.956532 0.083680
0.36263704 0.73255610 0.01937912 0.758691 -0.417854 -0.499786
-0.73302191 -0.27280757 -0.02187746 0.316583 -0.580135 -0.750479
0.86414409 1.42255545 -0.24777563 -0.593497 0.633848 0.495982
0.26912645 1.40645301 -0.34143698 0.957824 0.054407 -0.282159
-0.09647999 0.10725491 0.26481751 0.626538 -0.778596 0.035199
0.19481725 -0.00876679 0.13731119 -0.759866 -0.501675 -0.413432
0.33891934 -0.92127532 0.30370232 -0.742831 0.082860 -0.664332
-0.75917518 1.18092573 -0.35227758 0.986537 -0.052413 -0.154911
-0.29809552 1.64015734 -0.44199768 -0.381684 -0.267927 -0.884609
0.19185872 -0.05957918 0.28092614 -0.880377 -0.448166 -0.155190
-0.80590552 -0.01176234 0.08355227 -0.905269 0.058186 -0.420835
-0.53177023 -0.85907435 0.24097176 0.793984 -0.360902 -0.489223
0.87317538 1.45870399 -0.35496381 -0.729889 0.475007 -0.491558
0.88578969 1.46777332 -0.36246735 -0.657839 0.467016 -0.590884
0.09298988 0.64238971 -0.16813131 0.456558 0.070346 -0.886908
0.09082549 0.64120930 -0.16938728 0.440077 0.069919 -0.895234
1.26739943 1.41787541 -0.59076458 0.979662 -0.005797 0.200570
0.25972164 -0.96422791 0.46401879 -0.930194 0.283716 -0.232902
-0.73241013 -0.89918584 0.05497316 0.411158 0.904547 -0.112894
-1.21255207 1.38539386 -0.65558022 -0.626116 0.394833 0.672373
-1.04825342 1.59095478 -0.77330154 0.446769 0.620791 0.644217
0.33721018 0.28126809 0.48182812 0.470248 0.269814 0.840278
-0.82575351 1.37360227 -0.42309320 0.756130 0.647903 -0.092140
0.34990889 1.80921638 -0.47037971 0.405046 -0.576984 -0.709244
0.59545928 1.03553474 -0.13793609 -0.414854 -0.224527 -0.881751
-0.34608155 1.74995506 -0.43924913 -0.717172 -0.162925 0.677583
-0.37245142 1.83959651 -0.47015095 -0.735434 0.095416 0.670845
-0.48115095 0.44136032 0.26871049 -0.764442 0.644255 -0.023758
1.15049434 1.37573707 -0.70094734 -0.400568 -0.578598 -0.710472
-0.06461550 1.19282258 -0.91197789 -0.638196 0.136009 -0.757765
0.33493853 0.45811504 0.10829064 0.474576 0.704371 -0.527862
-0.06360289 1.08522367 -0.49299589 -0.763446 -0.644907 -0.035279
-0.63362467 -0.93021852 0.48882893 -0.346727 0.244318 0.905587
0.14355041 1.21173978 -0.34370264 0.712432 -0.694805 0.098418
0.49657732 -0.90240145 0.12022679 0.579694 0.532372 -0.616875
-0.23625757 1.33633435 -0.53774452 -0.765876 0.155592 -0.623879
-0.14049463 1.13575840 -0.31984961 -0.609982 -0.740578 -0.281898
0.19698432 1.57963884 -0.52609289 -0.035541 -0.396211 -0.917471
-0.47428530 0.91670537 -0.13469830 -0.957083 -0.237611 -0.165930
0.09810859 1.14202845 -0.44267100 0.762715 -0.634852 -0.123402
-1.22678292 1.33758569 -0.66840243 -0.782111 -0.345285 0.518730
-0.30518299 -0.08761755 0.21136102 0.368572 -0.137693 -0.919345
0.19055383 -0.03855602 0.26134229 -0.796809 -0.521173 -0.305734
0.18713132 -0.03286257 0.25981137 -0.832296 -0.538717 -0.130643
-0.59658134 0.34065405 0.29053712 -0.234511 0.967201 0.097607
0.21206634 -0.07533573 0.20493156 -0.862574 -0.499533 -0.080207
-0.07041772 0.73780030 -0.18163733 -0.487186 -0.091789 -0.868461
0.26676387 1.41379893 -0.34901106 0.972553 0.114492 -0.202563
1.02240896 1.52905881 -0.31942940 0.382504 0.922511 0.051618
0.47107553 -0.39434132 0.05075162 -0.412630 -0.604860 -0.681088
-1.10128605 1.14470589 -0.68125588 -0.304717 -0.295884 -0.905318
0.26368362 0.22527179 0.00433149 0.137379 -0.099152 -0.985543
0.35221949 1.39690697 -0.16279650 0.656110 0.665927 -0.355052
-0.34525108 1.86455536 -0.45360950 -0.557406 0.319665 0.766233
-0.07938689 1.11641598 -0.36046550 -0.528508 -0.844758 0.084048
-0.19259022 0.10184992 0.12754652 0.490066 -0.684085 -0.540243
-0.58495778 -0.26377061 0.32516217 0.215817 0.003500 0.976427
1.02121699 1.59954810 -0.57526296 -0.981032 -0.012741 0.193427
1.02011371 1.59144890 -0.57575083 -0.943952 0.093998 0.316416
0.14892723 0.04619012 0.15772437 -0.811218 -0.536177 -0.233322
-0.30886725 1.91038835 -0.58480191 0.490296 0.681060 -0.543844
0.00304777 1.28002119 -0.82299381 0.019896 0.979568 -0.200127
-1.23452127 1.38624525 -0.77314895 -0.937788 0.347095 -0.008835
-0.58737385 -0.89148003 0.46828014 0.039924 0.860432 0.507999
-0.56055111 -0.89712721 0.47221592 0.154393 0.801946 0.577101
-0.56637090 1.15011501 -0.19115916 0.511005 0.248555 -0.822857
0.28676158 0.57275718 0.07679079 0.726434 -0.575571 -0.375515
-0.24432336 1.71690941 -0.35392669 -0.518412 0.120527 0.846594
-0.66199040 1.14815056 -0.26125374 0.563380 0.207238 -0.799785
-1.05466831 1.16761553 -0.69853461 0.005408 -0.109243 -0.994000
0.01730581 1.28241110 -0.79810792 0.182824 0.919789 -0.347224
-0.00550351 0.87192512 -0.24345778 -0.033869 -0.090681 -0.995304
-1.22265232 1.43525362 -0.75514424 -0.924666 0.379982 0.024640
1.26804733 1.45387387 -0.59783167 0.977241 0.207439 -0.044366
0.43578124 -0.29743424 0.02305479 -0.501537 -0.248454 -0.828693
0.73980618 1.22041869 -0.12338249 -0.391792 0.823238 -0.410826
0.02517702 1.07350457 -0.29985589 0.299798 -0.817773 -0.491292
0.12115517 1.12229991 -0.27370933 -0.034550 -0.112567 -0.993043
0.28937316 1.70752072 -0.35689002 0.415664 0.052462 0.908004
-0.11550554 1.27960014 -0.69943750 -0.111763 0.992317 -0.053059
0.14053303 1.22305310 -0.42979160 0.922168 -0.371334 0.108249
-1.17362857 1.17012274 -0.85659820 0.183571 -0.981807 -0.048557
0.39426050 0.30456582 0.42982462 0.863193 0.141197 0.484727
-0.66892767 -0.89444107 0.45507547 -0.085562 0.982151 0.167508
0.23704411 0.56480497 0.01060395 0.477082 -0.713129 -0.513653
0.72265673 1.21448505 -0.12341882 -0.130864 0.821942 -0.554333
0.69592232 1.22513151 -0.11349576 0.040702 0.809822 -0.585262
-0.12111773 0.28193441 -0.04622497 -0.684643 -0.416091 -0.598441
-0.64591253 1.18884254 -0.22600193 0.546432 0.469564 -0.693485
0.55997008 1.17362714 -0.11497295 0.226231 0.256765 -0.939623
0.60929638 -0.29108280 0.31007487 0.793604 0.261404 0.549418
0.07041067 1.11486876 -0.46667460 0.870767 -0.465284 -0.158984
0.27215159 -0.68030262 0.45253602 -0.804739 -0.004113 0.593615
-0.81698215 -0.09364719 0.14032699 -0.977859 -0.061798 -0.199934
-0.60720021 -0.91706640 0.15613255 0.517983 -0.020393 -0.855148
-0.44725081 0.96513194 -0.20731695 -0.730157 -0.349630 -0.587052
0.30111778 1.74500585 -0.36494780 0.367875 0.122625 0.921754
0.29257065 0.49220651 0.09107919 0.704014 0.279371 -0.652929
-0.03702518 0.99706239 -0.24098253 -0.482597 -0.644023 -0.593578
-0.68762070 1.30711317 -0.16448505 0.295091 0.800060 -0.522327
-0.07429788 1.00284600 -0.23667213 0.051441 -0.024146 -0.998384
0.57284540 -0.17947765 0.34750006 0.539069 -0.172682 0.824370
0.28010222 1.46755672 -0.26032794 0.866127 0.499009 0.028554
-1.05741262 1.48477602 -0.55317205 0.454560 0.882047 -0.123971
-1.13409328 1.50913405 -0.64720255 -0.302478 0.822804 0.481145
-1.20237553 1.37564731 -0.63987690 -0.896153 -0.038963 0.442031
0.00363924 1.40037096 -0.66464937 0.188714 0.750252 -0.633648
1.15097654 1.40725648 -0.73340845 -0.607272 -0.673823 -0.420931
-1.09798610 1.19612682 -0.77853882 0.643215 -0.719447 -0.262050
-0.20426613 0.06723686 0.18035300 0.271654 -0.748239 -0.605263
0.56951284 -1.00797760 0.45052153 0.793430 -0.085268 0.602660
-0.64475137 -0.24611965 0.32711366 -0.118080 -0.144862 0.982381
-0.22601849 1.69948030 -0.33890948 -0.588498 0.082016 0.804328
0.37846303 -0.26937822 0.07103613 -0.768692 -0.325771 -0.550441
0.09230822 0.27200961 -0.01176566 0.073775 -0.477450 -0.875556
0.87702912 1.35200703 -0.11767361 -0.441371 0.677879 0.587939
-0.80316442 1.12703907 -0.44928038 0.809231 -0.073046 -0.582932
-0.32954115 1.83095324 -0.42866072 -0.594066 0.211395 0.776143
-0.33141005 1.84404516 -0.43469387 -0.548608 0.311891 0.775728
0.31439811 1.74639773 -0.37103236 0.427544 0.101664 0.898260
-0.68381608 1.21135724 -0.25182733 0.601285 -0.274465 -0.750417
-0.00581008 1.31970346 -0.74972016 -0.139964 0.961433 -0.236761
-0.68166935 1.03509569 -0.24545000 0.400738 -0.582141 -0.707475
-0.41103703 0.48160902 0.15917829 -0.761128 0.358655 -0.540417
-0.10256170 0.20594715 -0.02210964 -0.227663 -0.835783 -0.499636
0.40410614 0.22118975 0.45871168 0.119116 0.807343 0.577934
0.73510396 0.94371253 -0.16711080 -0.340305 -0.692007 -0.636647
0.78702205 0.97461462 -0.18779060 -0.139618 -0.644046 -0.752138
-0.45922473 0.99750775 -0.19847269 -0.812566 -0.100299 -0.574175
1.23258305 1.37449229 -0.48156559 0.914393 -0.404217 -0.022238
-0.53686064 0.38318843 0.29508096 -0.792090 0.596659 0.128807
1.18150568 1.44442832 -0.40488121 0.893420 0.190927 0.406630
0.05523313 1.09463644 -0.43603650 0.348673 -0.910022 0.224250
1.03752649 1.53079605 -0.58375031 -0.585365 -0.531383 -0.612356
0.03559254 1.41071618 -0.64276040 0.157590 0.802957 -0.574827
-1.22748792 1.37479627 -0.71896690 -0.904427 0.397378 0.155248
0.12903394 1.19644332 -0.39389449 0.712954 -0.605277 -0.354030
0.33974010 -0.96130496 0.62991184 0.067680 0.459947 0.885363
-0.78601438 -0.85269111 0.18871503 -0.194006 0.891263 -0.409893
-0.02691671 1.18459833 -0.96208006 -0.602750 -0.659519 -0.449141
0.73683292 1.18594456 -0.18494833 -0.551015 0.322898 -0.769493
0.59017795 -0.80635083 0.38404712 0.778423 -0.549194 -0.304046
-0.16321018 1.06052268 -0.23798309 -0.142908 -0.454707 -0.879101
-0.62388319 1.28587222 -0.14575055 0.386495 0.761574 -0.520218
1.18092644 1.61956739 -0.52456462 0.812341 0.539001 0.222664
0.49915400 0.33935297 0.20893167 0.318455 0.947931 -0.003717
-1.01843536 1.43075025 -0.75099933 0.803245 -0.356111 -0.477476
0.28992641 0.33332959 0.50189841 0.239814 0.157668 0.957930
0.64518619 1.07990408 -0.15791602 -0.310799 0.137077 -0.940539
0.50206321 1.07759833 -0.13098422 0.025984 -0.040536 -0.998840
0.24122106 1.58018816 -0.33095494 0.727769 -0.186173 0.660070
0.57346904 1.28442335 0.00231359 0.290285 0.870854 -0.396672
0.32379138 -0.28500786 0.29408774 -0.948234 -0.186382 0.257125
-0.62305421 -0.80036455 0.45164409 -0.129536 -0.182356 0.974662
-0.04675253 1.09534180 -0.40900537 -0.281707 -0.957295 0.065009
-0.08031704 1.27790952 -0.72031111 -0.047914 0.985166 -0.164779
0.84297138 1.34450674 -0.15661484 -0.651948 0.591614 0.474296
1.23108244 1.50877011 -0.51741964 0.878997 0.476403 0.020130
0.97696829 1.60049033 -0.50300080 -0.910151 -0.230804 -0.344028
0.84172493 1.39928889 -0.25223204 -0.769609 0.637836 -0.029439
0.21024117 -0.05045713 0.15514915 -0.828490 -0.451189 -0.331711
-0.33276242 0.00898899 0.06306577 0.788757 -0.602994 -0.119419
-0.70716500 1.10158277 -0.29073882 0.553416 -0.134296 -0.822007
-0.16962509 0.05259413 0.22923021 0.668975 -0.691327 -0.273018
0.29261363 0.50505710 0.09479819 0.774356 0.094789 -0.625610
-1.24492383 1.26067829 -0.71600848 -0.971042 -0.099240 0.217322
-0.58226103 -0.18908282 -0.00493562 0.409604 -0.377974 -0.830278
0.27620253 1.73703718 -0.35582188 0.295777 0.159474 0.941851
-0.76038116 1.22385919 -0.38788775 0.903409 -0.265881 -0.336391
0.31280735 1.40131736 -0.27508882 0.908086 0.212901 -0.360628
-0.07302304 1.22102714 -0.88445258 -0.465630 0.699279 -0.542400
0.66789347 -0.35011771 0.09609406 0.873846 -0.321783 0.364484
-0.62154865 1.31384432 -0.07713512 0.220209 0.973103 -0.067662
-0.60900462 1.31255960 -0.06923289 0.122115 0.973145 -0.195133
-0.46006775 1.07744086 -0.21471527 -0.113064 -0.304607 -0.945744
0.05326070 0.21588179 -0.00823838 0.832436 -0.466976 -0.298302
0.34103167 -0.23751342 0.10113146 -0.744111 -0.278842 -0.607080
-0.12165411 1.27542114 -0.72749436 -0.272984 0.917168 -0.290316
-0.64635998 1.02278078 -0.21738788 0.363500 -0.508900 -0.780313
-1.16391742 1.45084548 -0.55380005 -0.602395 0.798139 -0.009649
0.10104177 1.16066682 -0.33387405 0.790386 -0.434793 -0.431561
0.57677627 0.90000045 0.04137627 0.278831 -0.952781 -0.120254
0.56362015 0.89745921 0.01103938 -0.209768 -0.976089 -0.056989
0.20862675 1.43091416 -0.48936728 0.812893 0.219742 -0.539368
-0.80991411 -0.09425765 0.08452304 -0.966859 -0.095039 -0.236963
-0.81103063 -0.10225730 0.09252571 -0.990532 0.012229 -0.136740
0.26818764 -0.15345530 0.16803104 -0.820197 -0.529997 -0.215359
0.07259948 0.31301767 0.59345990 0.337737 -0.377833 0.862077
-0.72850251 1.08108342 -0.29662630 0.428947 -0.287502 -0.856357
-0.72397453 1.07869816 -0.29371789 0.422765 -0.296704 -0.856292
0.29415727 1.34028864 -0.26386681 -0.269190 -0.844489 -0.463007
-0.71072471 1.30354333 -0.18280344 0.496673 0.697349 -0.516740
0.27631000 1.47022128 -0.28110334 0.886332 0.384127 -0.258576
-0.83532202 1.38685775 -0.42872465 0.852667 0.495049 -0.166987
-0.18893456 0.22026990 0.01542306 -0.103049 -0.330558 -0.938143
0.62149751 -0.63312989 0.29018548 0.880306 0.056307 0.471053
-0.29814014 0.14014825 0.02340617 0.445595 0.011900 -0.895156
-0.38338482 1.93814671 -0.54893798 -0.102285 0.959404 0.262833
-0.30038762 0.67392683 -0.08422376 -0.443103 -0.881847 -0.161260
-0.03468252 0.14551958 0.22834486 0.149971 -0.898400 0.412778
-0.50691384 -0.29494271 0.25305298 0.855125 0.270764 0.442095
0.06558678 1.11733270 -0.41620946 0.561908 -0.548409 0.619280
1.04891396 1.31836224 -0.54612100 -0.312248 -0.034132 -0.949387
-0.68253356 -0.97858149 0.47488829 -0.471040 0.062161 0.879919
0.36817148 1.37304795 -0.19042033 0.603653 0.794882 -0.061364
0.01694190 1.33531117 -0.71130818 0.196109 0.432030 -0.880279
-0.71898383 -0.95855147 0.44363335 -0.604783 0.079387 0.792424
-0.80718189 -0.81584191 0.28283811 -0.855347 0.516514 0.039944
-0.20078149 0.03947679 0.21886976 0.344278 -0.813893 -0.468028
-0.39666551 1.87314570 -0.56237531 -0.309082 -0.823695 -0.475390
-0.48792058 -0.14018591 0.00351868 0.516418 -0.722321 -0.459961
-0.61751765 -0.20862016 -0.01273839 0.347300 -0.329101 -0.878109
-0.50492132 -0.84636962 0.38641587 0.927706 -0.051320 0.369767
-0.61277795 1.02506757 -0.20317544 0.422666 -0.561897 -0.711073
-0.08112361 0.11215863 0.09909303 -0.520844 -0.831841 0.191731
0.02679601 0.98006088 -0.24873959 0.265455 -0.360366 -0.894243
0.34063584 1.89443111 -0.44998267 -0.117455 0.727032 0.676482
0.23608464 1.40423715 -0.46529132 0.803072 0.170257 -0.571040
-0.00987959 0.34021059 0.60820180 0.108983 0.329641 0.937795
-0.26999623 1.43744957 -0.45532840 -0.871388 0.364732 -0.328106
-0.68051976 1.08579433 -0.27181324 0.491237 -0.151037 -0.857831
-1.00851381 1.45235527 -0.63149822 0.427238 0.890439 -0.156798
0.26316383 -0.70333785 0.39319700 -0.917166 -0.372729 -0.140995
0.58813411 -0.38663736 0.00895905 -0.112182 -0.820240 -0.560910
-0.21242583 -0.00501210 0.25717235 0.871529 -0.091814 -0.481672
-0.18170330 0.04076283 0.23391278 0.532509 -0.804229 -0.263912
-0.19422175 0.02992438 0.24752434 0.493968 -0.832514 -0.250831
-0.27749372 0.20134380 0.02233511 0.257048 -0.025583 -0.966060
-0.57079220 -0.16930147 -0.01967491 0.182566 -0.676569 -0.713389
-0.79272318 -0.95145583 0.36839938 -0.678618 -0.230385 0.697425
0.39952055 -0.81533754 0.29556853 -0.209691 -0.365875 -0.906733
-0.10157860 1.12588763 -0.47831705 -0.702723 -0.708495 -0.064933
0.27169856 1.57708716 -0.38045251 0.551261 -0.761420 0.341103
-0.43603298 0.40902218 0.42590818 -0.584083 0.493188 0.644680
-0.78290528 1.09991157 -0.37171769 0.944972 -0.250987 -0.209841
-0.06420282 1.47238314 -0.61419350 -0.210150 -0.303236 -0.929454
-0.76962888 1.28827000 -0.37714741 0.782678 0.588930 -0.201436
-0.07083232 0.72290903 -0.18321829 -0.553669 0.179528 -0.813155
-1.22559702 1.18335187 -0.91855484 -0.708747 -0.702996 0.058942
1.05728817 1.30910993 -0.54772335 -0.184536 0.105272 -0.977172
-0.21865387 0.26950014 0.00429582 -0.293748 -0.363043 -0.884258
-0.61174041 -0.20044337 0.33404687 -0.232040 -0.780216 0.580879
0.46350914 -0.79407287 0.27645096 -0.331259 -0.252457 -0.909138
-1.24885881 1.26789737 -0.84354699 -0.970851 0.238813 0.020401
-1.18435216 1.46444774 -0.65043825 -0.792458 0.493478 0.358455
-0.62891066 1.27754450 -0.17026405 0.234788 0.926344 -0.294552
-0.65388346 1.28386545 -0.17148876 0.329285 0.895477 -0.299486
1.20202518 1.43908811 -0.42965463 0.814500 0.260079 0.518602
1.24935615 1.43964267 -0.50343400 0.860653 0.327941 0.389526
-0.43587357 0.37538671 0.44920337 -0.578922 0.474884 0.662823
-0.76874971 -0.23628061 0.25592819 -0.733836 0.155846 0.661209
-0.59782517 -0.81834018 0.45577613 0.025317 0.239904 0.970466
-0.62828261 -0.88321680 0.16626275 0.310956 0.600967 -0.736305
0.03125865 1.27090454 -0.83865130 0.306674 0.855298 -0.417632
-0.07905209 0.17663713 -0.02343432 -0.402000 -0.024879 -0.915302
-0.21695513 1.35997343 -0.55606592 -0.572568 0.029114 -0.819340
-0.00370553 0.67698669 -0.19267912 0.057136 -0.048512 -0.997187
-0.00791435 0.67460638 -0.19283457 0.045605 -0.043484 -0.998013
1.03617465 1.52148271 -0.31223887 0.206655 0.965692 0.157266
-0.28984082 1.79173470 -0.60163730 -0.795689 -0.541445 0.271507
0.29398328 1.62684643 -0.36052492 0.596177 -0.151672 0.788396
-0.76735497 1.16844523 -0.38906726 0.940783 -0.242470 -0.236928
0.82041818 1.27079749 -0.06890975 -0.516454 0.856263 0.009439
-0.44383526 -0.36943501 0.21454132 0.986704 0.144654 -0.074091
-0.18808588 0.15736343 0.05844304 0.108515 -0.834845 -0.539683
0.60391736 -1.01595235 0.41248107 0.671526 0.044011 0.739673
0.34938499 -1.02932501 0.26428041 -0.919014 -0.016898 -0.393863
-0.17454977 1.29316878 -0.60030210 -0.507781 -0.001340 -0.861485
-0.80234259 -0.87866610 0.33604047 -0.572176 0.521541 0.632938
0.20567563 1.77843416 -0.38502830 -0.563884 0.654779 0.503288
-0.02930925 1.40175903 -0.67019582 -0.176307 0.694495 -0.697562
0.10262790 0.25844464 -0.00508503 0.011785 -0.425578 -0.904845
0.10505202 0.26149538 -0.00639257 0.009122 -0.418297 -0.908265
-0.79961503 -0.22467905 0.21093993 -0.840217 0.233309 0.489491
0.40251270 0.38098750 0.35631341 0.967688 0.179584 0.177000
0.34258002 -0.24744844 0.33751607 -0.868762 0.023040 0.494693
-0.81803644 -0.07742941 0.11942056 -0.991901 -0.034745 0.122166
-0.61539495 -0.29812595 0.36301273 0.216574 0.846609 0.486157
0.44342557 0.36439550 0.16405484 0.807486 0.482580 -0.339240
0.44439816 0.25812250 0.41697666 0.173719 0.799109 0.575540
0.42564136 1.85113716 -0.47234249 0.800384 -0.463549 -0.380142
-0.82429421 -0.85026133 0.24979565 -0.350710 0.936483 0.001257
0.49261788 -0.88307095 0.19546989 0.128336 0.953922 -0.271226
-0.59099752 -0.81423897 0.16543618 0.001352 -0.539322 -0.842099
0.79162532 1.07492959 -0.26913121 -0.913753 -0.389628 0.115086
-0.82594615 -0.26489705 -0.00348290 -0.642604 -0.521167 -0.561646
-0.79206729 -0.12418108 0.21555316 -0.824463 -0.365549 0.432012
-0.79149789 -0.86969322 0.13904887 -0.155358 0.987712 0.017010
0.19690558 0.29691043 0.53261900 -0.068951 0.246970 0.966567
0.81841785 1.33031261 -0.16488777 -0.676821 0.430704 0.596999
0.35570595 1.85040855 -0.51133376 0.565021 -0.740878 -0.363112
0.46607369 0.34226537 0.30393216 0.318768 0.847456 0.424506
0.19190869 0.00094362 0.13123517 -0.724031 -0.511958 -0.462253
0.48417833 -0.39593273 0.04572866 -0.258793 -0.662066 -0.703346
-0.81286579 -0.11983882 0.12745029 -0.987304 0.157923 -0.017042
-0.70490962 -0.91699928 0.03278318 0.141629 0.970990 -0.192667
1.17090690 1.47618127 -0.39753771 0.774902 0.038110 0.630931
0.25609246 1.38754809 -0.43004143 0.990460 -0.014484 -0.137038
1.14199746 1.31479990 -0.56328982 -0.129019 -0.859645 -0.494332
0.36570767 1.74222422 -0.40241972 0.347076 0.130325 0.928738
0.28659812 -0.20236225 0.18087250 -0.898685 -0.385983 -0.208285
-0.07884554 1.24741399 -0.81940675 0.020806 0.963187 -0.268028
-0.09464490 1.27578390 -0.73857558 -0.020304 0.973420 -0.228127
-0.09094635 1.26845157 -0.76301837 -0.240319 0.894931 -0.375959
0.35765868 1.90688813 -0.46111053 -0.113657 0.763122 0.636181
-0.61929977 1.07852662 -0.23283680 0.489786 -0.180134 -0.853031
-0.71461463 1.08986068 -0.29272106 0.467160 -0.228289 -0.854193
0.01572163 1.17701554 -0.96229827 -0.048998 -0.070775 -0.996288
0.08696974 0.64748120 -0.17044638 0.411580 0.069276 -0.908737
1.23694098 1.45667124 -0.49536920 0.842338 0.145535 0.518927
-0.67306292 1.17446566 -0.25805864 0.533807 0.453985 -0.713406
-0.64422363 -1.00727844 0.07174832 0.666998 -0.417497 -0.617098
0.73043096 1.20623672 -0.15304360 -0.374359 0.869430 -0.322407
-1.02945244 1.27718115 -0.70857859 0.802066 -0.285214 -0.524731
-1.22012210 1.19523335 -0.75944048 -0.398496 -0.916671 -0.030249
1.02225304 1.53905368 -0.56781220 -0.912306 -0.286642 -0.292462
0.75860041 1.10422325 -0.21435918 -0.708475 0.006932 -0.705702
0.33770591 -1.02392268 0.28831780 -0.902264 0.022523 -0.430596
-0.49859169 0.42263436 0.30570567 -0.693124 0.716374 -0.079920
-0.68676853 -0.24357626 0.31822854 -0.354028 0.008882 0.935193
-0.49654263 -0.31171596 0.23228268 0.897326 0.424011 0.122555
-0.70000833 1.12322450 -0.28830510 0.618115 -0.076364 -0.782370
-0.68170691 1.12357056 -0.27599129 0.477394 -0.014710 -0.878566
-1.18322909 1.52799046 -0.72054160 -0.771761 0.419329 0.478068
0.63507164 -0.93316686 0.19786446 0.968098 0.249009 0.027938
-0.63764548 1.06958234 -0.24145424 0.509220 -0.255384 -0.821872
-0.52442265 -0.84896147 0.42505908 0.708861 0.055850 0.703133
-0.40823191 -0.17413597 0.19317263 0.415267 -0.450815 -0.790138
1.15498638 1.63170791 -0.49347645 0.591244 0.728060 0.346928
-0.74086744 -0.78442901 0.39591011 -0.587595 -0.335075 0.736517
0.21429719 1.59996164 -0.53755522 0.531474 -0.595588 -0.602337
0.99673349 1.53350163 -0.50398725 -0.705670 -0.286429 -0.648065
0.73799956 1.13332391 -0.18863529 -0.681956 0.107989 -0.723377
0.69941372 1.12374747 -0.17090219 -0.258169 0.252526 -0.932512
-0.98264968 -0.93394196 0.19213372 -0.731582 0.644229 -0.223062
-0.68696219 -0.80151844 0.43357486 -0.322228 0.298470 0.898379
0.33010679 -0.35377672 0.35545838 -0.647501 0.663977 0.374002
-0.39144590 1.84979165 -0.54352731 0.023122 -0.512757 -0.858222
-0.07629985 1.09019685 -0.30573881 -0.537448 -0.710496 -0.454252
0.30788547 -0.81027365 0.52505565 -0.900079 0.116547 0.419850
0.59459347 -0.79213989 0.37196454 0.967475 -0.236494 0.089792
0.12797767 0.15724170 0.03248864 -0.132199 -0.427870 -0.894120
0.76040757 1.22373104 -0.14593266 -0.524260 0.767725 -0.368443
1.20316315 1.42008567 -0.41832334 0.857634 0.247424 0.450827
1.23845804 1.41989982 -0.48768109 0.790967 -0.049524 0.609851
1.24366093 1.41210055 -0.49607688 0.821639 -0.272840 0.500467
-0.52422661 0.39724955 0.28664309 -0.683012 0.724140 -0.095475
-0.55055165 -0.24765863 0.30897781 0.558177 0.183034 0.809282
-1.24825466 1.30949640 -0.75218588 -0.967687 0.230159 0.103000
0.38017246 -0.86607409 0.58022702 -0.178800 -0.194461 0.964477
0.78112495 1.11202848 -0.25733808 -0.975587 -0.219536 -0.005870
1.13020933 1.35928023 -0.64695811 -0.419906 -0.815862 -0.397553
0.17319988 -0.01916573 0.24676774 -0.756264 -0.583586 0.295790
0.61115563 -0.20368743 -0.00588916 0.249188 0.512306 -0.821856
0.58833176 -0.23949295 -0.02098702 -0.305464 0.438814 -0.845065
0.62785804 1.23622131 -0.08999725 -0.110610 0.756572 -0.644487
0.36992970 1.76806569 -0.40725800 0.492883 0.080041 0.866406
-0.23532870 0.21417862 0.02028253 -0.041640 -0.431176 -0.901306
-1.25621414 1.24297297 -0.79645234 -0.991784 -0.074355 0.104097
0.73316824 1.22754204 -0.10389791 -0.142829 0.906472 -0.397377
-0.71038449 -1.00420511 0.45608583 -0.740647 -0.067857 0.668459
0.35934407 1.85842013 -0.52334177 0.592689 -0.749248 -0.295546
-0.43971515 1.07060015 -0.21464391 -0.556163 -0.269416 -0.786191
0.45910603 0.28089792 0.37948069 0.406583 0.554730 0.725923
0.75154239 1.12594175 -0.20577992 -0.765927 0.038085 -0.641799
0.22391158 1.62897563 -0.54569209 0.983033 -0.067919 0.170392
-0.25283298 0.02560388 0.15523531 0.773338 -0.470515 -0.424929
-0.17724508 0.15974987 0.05530917 0.006682 -0.869945 -0.493103
0.01973004 1.05266047 -0.28041592 0.246789 -0.529277 -0.811764
-0.02495832 1.41512442 -0.65513104 0.037862 0.797909 -0.601587
0.34715044 1.85499287 -0.57925647 0.554730 -0.406583 -0.725923
0.06724287 1.10083270 -0.43545437 0.549554 -0.805089 0.223208
-0.45324335 1.90778577 -0.59136802 -0.997090 0.063598 -0.042039
-0.74119931 -0.24144337 0.28532234 -0.659590 0.179053 0.729987
-0.43581861 0.47703180 0.20790444 -0.783452 0.620291 0.037977
0.38164374 0.47861797 0.23084933 0.451155 0.886849 -0.099788
0.35522583 -0.23504606 0.07788807 -0.783315 -0.534441 -0.317474
-0.68147534 -0.84493136 0.16725801 0.122879 0.430783 -0.894051
-0.54951489 -0.80919904 0.44165531 0.402502 -0.092040 0.910780
0.56784457 0.89926773 0.11489924 0.357881 -0.908468 0.215888
-0.11546963 1.22860599 -0.83371627 -0.685508 0.565419 -0.458673
-0.57095855 1.25507009 -0.15111551 0.199936 0.699001 -0.686602
-0.51400232 -0.19000453 0.03839672 0.654010 -0.417701 -0.630712
1.15958416 1.49172843 -0.37827465 0.754181 -0.023787 0.656236
-0.37880161 -0.04389490 0.05927868 0.701375 -0.578676 -0.416182
0.65779018 -0.96339339 0.34611785 0.503712 0.048301 0.862520
-0.79473484 -0.21331781 0.21403828 -0.823067 0.222243 0.522655
-0.04888841 1.05531418 -0.27494299 -0.345672 -0.566383 -0.748145
-0.61654800 1.04470146 -0.21802020 0.432665 -0.435906 -0.789168
-0.56535608 1.08757365 -0.20176072 0.547392 -0.012286 -0.836786
-0.51460868 -0.95940071 0.28114447 0.897054 -0.025325 -0.441196
-0.70773089 -0.18194643 -0.04903537 0.595927 -0.164446 -0.786021
0.34855098 -0.97446090 0.27508670 -0.916420 -0.068631 -0.394289
-0.71234941 -0.17712814 0.30246818 -0.619073 -0.205328 0.758017
-0.14835541 1.24433041 -0.75407004 -0.664967 0.587918 -0.460620
-0.14312671 1.23880506 -0.76875484 -0.619292 0.678744 -0.394695
-0.73213202 -0.23048058 -0.04691622 0.260738 -0.192482 -0.946027
-1.03849125 1.49644756 -0.83999664 0.542902 -0.146451 -0.826928
0.66108495 -0.23572427 0.10684162 0.999488 0.019358 0.025471
-0.43432859 1.88997531 -0.57784307 -0.337413 -0.818979 -0.464141
-1.24963295 1.31856108 -0.77209693 -0.979461 0.154392 0.129689
-0.85041380 -0.88122696 0.16197358 -0.397042 0.877116 -0.270230
-0.77172321 -0.83365351 0.36929655 -0.738287 0.046943 0.672851
-0.64166278 -0.28521854 0.35444421 0.110434 0.861960 0.494802
-0.43086797 -0.10094029 0.05426405 0.569405 -0.498860 -0.653389
-1.09945691 1.47741234 -0.60440469 0.076898 0.871041 0.485154
0.46803659 0.32010233 0.32773700 0.628460 0.520628 0.577914
-0.42940071 1.92650855 -0.60827178 -0.603769 0.539502 -0.586857
-0.78938216 1.10597801 -0.40226078 0.899501 -0.371246 -0.230378
-0.01685302 1.39573801 -0.67588115 0.133140 0.668692 -0.731522
1.09068108 1.51215291 -0.33827311 0.581147 0.661536 0.473961
0.02212493 1.06664824 -0.49765363 0.481857 -0.809456 0.335551
0.37312007 -0.89701533 0.26359546 -0.572652 0.407622 -0.711276
0.23754388 -0.06019972 0.10414500 -0.848114 -0.511212 0.139155
0.54372311 -0.80004644 0.52246374 0.590505 -0.730404 0.343241
-0.80180615 -0.24176469 0.21396080 -0.876819 0.094297 0.471484
0.41390729 -0.98564488 0.61230367 0.620036 0.267995 0.737383
-0.59350729 1.04818130 -0.20798448 0.446493 -0.436751 -0.780956
0.98612863 1.56798792 -0.40960518 -0.895778 0.116718 0.428905
-0.79549855 -0.82630062 0.24515420 -0.706226 0.326325 -0.628297
1.20947397 1.53682005 -0.50693715 0.864066 0.452320 0.220900
1.20530474 1.53418279 -0.46944347 0.930924 0.014085 0.364942
-0.10565911 0.17494972 -0.00577599 -0.829425 0.060759 -0.555305
0.26212150 -0.12771241 0.14471520 -0.797455 -0.459141 -0.391478
0.25069886 -0.10368834 0.13977760 -0.783221 -0.452420 -0.426475
0.10559675 1.19614327 -0.89230603 0.483948 0.310547 -0.818141
1.23695338 1.36357903 -0.54844910 0.651206 -0.654504 0.384129
0.29788303 0.31824911 0.50534159 0.191121 0.276369 0.941856
0.61464226 -0.18358783 0.29523769 0.575355 -0.538235 0.615849
-0.39156172 -0.10757532 0.10127037 0.641287 -0.621195 -0.450408
-0.11139012 1.24717760 -0.79875880 -0.302287 0.939687 -0.160034
-0.68992466 -0.91871387 0.06096203 0.506498 0.845153 -0.170813
0.36532518 0.30842045 0.45859000 0.478628 0.189364 0.857355
0.36707515 -0.85156059 0.31483632 -0.595035 0.148384 -0.789883
-1.16779339 1.49005127 -0.65166104 -0.641168 0.513271 0.570488
-0.43237093 1.92771149 -0.57155848 -0.671079 0.654751 0.347785
-0.99827403 1.33767021 -0.69197845 0.769084 -0.165345 -0.617391
-1.24537086 1.23346961 -0.73572159 -0.896397 -0.030726 0.442187
0.54471552 -0.36690581 0.01505092 -0.250108 -0.596169 -0.762908
0.51195931 -0.37878397 0.02571571 -0.040001 -0.514490 -0.856563
1.12753236 1.29150224 -0.54200059 0.178311 -0.525943 -0.831619
-0.81767511 -0.95655233 0.34534851 -0.572689 0.087995 0.815036
0.24499945 0.64763641 -0.05056723 0.459388 -0.883869 -0.087968
0.35489386 1.84000754 -0.41282028 0.278895 0.454553 0.845931
0.35373059 1.77075279 -0.39635837 0.557715 0.066699 0.827348
-0.70964074 -0.86666673 0.13781619 -0.094962 0.623830 -0.775770
0.16957301 0.61842680 -0.10986811 0.806037 0.006866 -0.591826
-0.19216271 1.62211478 -0.53002322 0.148571 -0.442827 -0.884212
-0.55614936 -0.18126012 0.00147482 0.290430 -0.637021 -0.714041
-0.96412116 -0.92220020 0.20287769 -0.548850 0.828370 0.112099
-0.79687905 -0.30507386 0.01817762 -0.514256 -0.729219 -0.451421
0.69586194 1.16632736 -0.16412345 -0.185371 -0.418909 -0.888905
-0.65176475 -0.27782044 0.34025767 0.039751 0.864930 0.500316
-0.50974244 -0.20862249 0.06533192 0.505009 -0.711679 -0.488342
0.94677877 1.49567544 -0.39491281 -0.177102 0.846813 -0.501540
-0.99631077 1.41700900 -0.68164402 0.990230 0.131345 -0.046827
0.30441052 -0.80701208 0.50505584 -0.989318 -0.092057 0.113032
0.30046999 -0.80063277 0.49254304 -0.903188 -0.302045 0.304992
0.28000659 -0.17938374 0.17388372 -0.923328 -0.339728 -0.179027
-0.79028702 -1.00570333 0.37629309 -0.581118 -0.180556 0.793537
-1.02854609 1.54250324 -0.82598501 0.925245 -0.082154 -0.370367
0.55936068 -0.86039370 0.32955682 0.767250 0.631766 -0.110449
0.36069492 1.76537836 -0.40097600 0.579542 0.020747 0.814678
0.78853047 1.27730727 -0.18881090 -0.917205 0.397934 0.019571
0.01891545 0.85265940 -0.24581788 -0.765162 -0.178691 -0.618544
-0.18873000 1.28548980 -0.58889174 -0.610599 -0.110349 -0.784215
-0.15785259 1.23778808 -0.74141169 -0.923895 0.217806 -0.314608
0.03857509 1.22881830 -0.91277206 0.342099 0.845095 -0.410832
-1.04960203 1.46690702 -0.84028262 0.963427 -0.225538 -0.144710
0.71002311 -0.95911330 0.29464349 0.801450 0.350335 0.484709
0.82253420 1.27541232 -0.10622370 -0.499732 0.700294 0.509761
0.36710587 -0.86177707 0.31253242 -0.590466 0.267530 -0.761432
0.06503636 1.10776877 -0.51968294 0.493582 -0.807824 0.322177
0.14240813 0.64733016 -0.13021962 0.629232 0.175210 -0.757211
0.22016010 1.60975409 -0.53601545 0.969816 -0.242756 0.022947
-0.52750403 -0.17226531 0.00937585 0.601832 -0.652124 -0.461013
-0.47246641 -0.23830001 0.20228620 0.754127 -0.656550 0.015333
0.46583039 -0.81339306 0.56803405 0.459150 -0.397930 0.794250
0.47386494 -0.82990807 0.56178218 0.508387 0.077455 0.857638
-0.70588309 -1.02616763 0.45301604 -0.624352 -0.271664 0.732382
0.38383952 1.91293097 -0.46818998 0.136321 0.663630 0.735535
-0.71263576 -0.12579320 -0.04442152 0.265401 0.634102 -0.726277
0.39485916 1.91008806 -0.46754229 0.237714 0.563989 0.790828
-0.54254895 -0.27368891 0.30659696 0.680805 0.185953 0.708467
0.07255848 1.12269545 -0.48396242 0.782691 -0.606772 0.138648
-0.29907963 -0.07054772 0.21220504 0.452284 -0.194260 -0.870461
-0.33488104 -0.11104355 0.20458804 0.326553 -0.231608 -0.916363
0.83397585 1.33510542 -0.15727311 -0.542139 0.511927 0.666345
0.97441375 1.67319274 -0.47083333 -0.796860 0.468457 0.381527
-0.63166046 -0.32084772 -0.00116805 0.592309 0.438810 -0.675733
-0.57156098 0.33736336 0.22318296 -0.384469 0.922984 -0.016829
0.08952759 0.62519097 -0.17018493 0.434409 -0.041692 -0.899750
0.21921048 -0.06142141 0.14934243 -0.789672 -0.507761 -0.344380
0.00086214 1.32836711 -0.72170287 0.091690 0.775730 -0.624368
-0.10307603 0.15233649 -0.00160344 -0.745017 -0.566473 -0.352219
0.18482082 -0.03329014 0.20772299 -0.787161 -0.585403 -0.194115
-0.78788447 -0.78823042 0.33614299 -0.872358 -0.241738 0.424918
-0.55442882 1.07360888 -0.19246310 0.548065 -0.206097 -0.810647
-1.06284702 1.36801684 -0.82186651 0.660506 -0.603653 -0.446469
-1.05057204 1.37563562 -0.81794167 0.623218 -0.688993 -0.369984
0.32291564 -0.82619035 0.36925423 -0.922132 -0.152061 -0.355739
-0.02831778 0.77412480 -0.21071874 -0.380203 -0.278014 -0.882130
-0.52030593 1.07852590 -0.18316443 -0.227849 -0.161997 -0.960126
0.26928237 -0.92680365 0.50988376 -0.969785 0.243934 0.003570
0.39728928 -0.83692288 0.29919630 -0.396357 0.154849 -0.904944
1.19576848 1.36248147 -0.68755859 0.490645 -0.753197 -0.438134
-0.15231453 1.20802546 -0.77457088 -0.983527 -0.038593 -0.176591
1.08886433 1.69688225 -0.46627986 0.583935 0.590706 0.556854
0.50085908 -0.86449844 0.53908890 0.495826 -0.449703 0.742916
-0.65236175 -0.19926196 0.32216543 -0.254756 -0.327544 0.909843
-0.39496592 1.87421441 -0.56630349 -0.377011 -0.843190 -0.383268
-0.23664908 0.17251062 0.03699655 0.400821 -0.049270 -0.914831
0.39909747 1.78239751 -0.42466378 0.687961 0.067786 0.722575
-0.64625597 -0.27076522 0.33180538 0.029226 0.591473 0.805795
-0.25882936 1.60651278 -0.44659147 -0.323010 -0.406467 -0.854663
-0.58251464 1.09237611 -0.21377826 0.541041 -0.014991 -0.840863
-0.41347021 1.93434477 -0.60153592 -0.054129 0.928114 -0.368341
-0.49950960 -0.83339083 0.37846959 0.824298 -0.134188 0.550024
-0.69621724 -0.90154034 0.09241397 0.384135 0.817681 -0.428764
-0.24600896 1.47994149 -0.47140014 -0.721662 -0.052874 -0.690223
1.14743853 1.61629522 -0.45368078 0.610888 0.732745 0.299832
1.03526759 1.51958442 -0.57222146 -0.647557 -0.460150 -0.607398
0.03270521 1.09330094 -0.39579380 0.396015 -0.912076 -0.106248
-0.49769053 -0.33870301 0.10649777 0.616777 0.748607 -0.243258
-0.49875042 -0.33513761 0.11506302 0.538988 0.765590 -0.351232
0.26978976 -0.12461790 0.12638158 -0.779478 -0.397032 -0.484541
-0.71276069 -0.97685188 0.44891632 -0.621876 0.085526 0.778432
0.56412208 -0.23869070 -0.01333969 -0.149075 0.107867 -0.982925
0.06901349 0.59854758 -0.17110933 0.249897 -0.337580 -0.907519
0.33970615 -0.83188123 0.34223825 -0.759051 -0.218867 -0.613139
1.20242405 1.32448304 -0.57225990 0.830996 -0.556264 -0.004080
-0.42593870 1.85518539 -0.53180730 -0.761183 0.126616 0.636057
0.41027662 -0.25852606 0.01967246 -0.649751 -0.471783 -0.596024
0.03341743 0.72007662 -0.19086386 0.272653 0.206220 -0.939752
0.39641237 1.87980485 -0.51616579 0.413475 -0.802816 -0.429563
-0.45554978 0.99619931 -0.20602025 -0.933399 -0.029693 -0.357609
-1.08109009 1.26134670 -0.80469555 0.828896 -0.043332 -0.557722
-0.85973072 -0.93717879 0.31314233 -0.838185 0.223617 0.497435
-0.03379235 1.09064102 -0.38796800 -0.411062 -0.911599 -0.003890
-1.04423428 1.42541468 -0.80790389 0.952184 0.295862 0.076226
0.21620883 1.51684463 -0.48329669 0.890287 -0.070177 -0.449960
-0.53594774 -0.21872309 0.04057595 0.653566 -0.352172 -0.669946
0.34273067 1.80747998 -0.39441711 0.424749 0.198412 0.883301
-0.81506419 -0.12631693 0.12326941 -0.940613 0.320694 0.111371
-0.02181166 1.14056051 -0.88886774 0.052229 -0.994570 -0.090011
-0.01821847 1.14124107 -0.89129990 0.067524 -0.984429 -0.162295
-0.05889158 1.07986677 -0.30432048 -0.313064 -0.868943 -0.383312
0.10222715 0.60538071 -0.15769084 0.543260 -0.186131 -0.818672
-0.40267611 -0.13020536 0.12181027 0.596264 -0.669753 -0.442605
-0.55198133 -0.25092822 0.04105303 0.667033 0.133407 -0.732987
0.38177893 0.46005905 0.35656071 0.950879 0.309560 -0.001233
1.25119448 1.38487232 -0.64763516 0.768450 -0.608292 0.198657
0.07542934 0.63732946 -0.17566191 0.303658 0.003688 -0.952774
0.39077637 1.89118886 -0.45493048 0.334107 0.467117 0.818642
0.28384778 -0.13761456 0.11644571 -0.730397 -0.370917 -0.573533
0.74489003 1.23249018 -0.09648316 -0.302117 0.926209 -0.225524
0.35208562 -0.84766555 0.58126074 -0.142350 0.074116 0.987038
0.03755363 0.08209920 0.25744623 -0.477153 -0.831521 0.284427
0.06187607 0.07437414 0.25688690 -0.252312 -0.961375 0.109982
0.06500234 0.07338306 0.25928131 -0.277438 -0.960737 0.003635
0.06761011 0.07274016 0.25625047 -0.283128 -0.955394 0.084033
-0.53741658 -0.86525863 0.23795593 0.693810 -0.476472 -0.540002
0.42576924 -0.83487296 0.58408755 0.331390 0.103308 0.937821
-0.65893269 -0.24047026 0.32602283 -0.187785 -0.108194 0.976233
-0.65052480 -0.24574181 0.32654241 -0.124948 -0.105908 0.986495
1.05355620 1.28395116 -0.54923010 0.025465 0.114041 -0.993150
1.03643847 1.38848960 -0.52830750 -0.807960 -0.004101 -0.589223
1.03516817 1.39405763 -0.52682275 -0.804747 -0.032078 -0.592751
1.04323745 1.43601060 -0.54821146 -0.821556 -0.179386 -0.541172
-0.40153864 1.90286338 -0.51682103 -0.670035 0.392095 0.630329
0.59735680 1.22226763 -0.09907999 -0.232716 0.754375 -0.613809
-1.01349783 1.44923937 -0.75468093 0.920615 -0.224785 -0.319280
1.23330998 1.37532485 -0.49754372 0.943946 -0.293883 0.150327
0.55165315 -0.22924682 -0.01356009 0.194352 -0.221159 -0.955676
-0.53539366 -0.24898800 0.05912888 0.765107 -0.126280 -0.631399
0.32629481 -0.35430741 0.30042037 -0.936182 0.346977 0.056302
0.43495324 1.87856567 -0.49296468 0.700016 -0.611489 -0.368861
-0.88392472 -0.90056455 0.25588784 -0.488841 0.774674 0.401142
0.18066981 0.58202642 -0.06776873 0.832442 -0.399635 -0.383839
0.32972208 -0.87165850 0.56526649 -0.695945 0.004151 0.718083
0.53471571 -0.24644546 -0.01239977 0.128703 -0.279963 -0.951344
0.44798651 0.31838089 0.35140279 0.341370 0.860377 0.378442
0.36319560 -0.33037484 0.37623128 -0.609990 0.525504 0.593092
0.61853576 -1.01271367 0.39828640 0.750441 0.035331 0.659992
-0.41638881 1.88811123 -0.52543885 -0.753430 0.208856 0.623475
0.40100998 -0.86344630 0.27391320 -0.551215 0.834309 0.009527
-1.03511000 1.33435977 -0.75914979 0.892078 -0.172054 -0.417845
1.14273131 1.61643982 -0.41811764 0.700387 0.645644 0.304306
-1.00214183 1.46332741 -0.71891391 0.982287 -0.041273 -0.182779
1.01897216 1.43704975 -0.50952405 -0.852481 -0.132608 -0.505660
-0.04458345 1.14438105 -0.89812154 -0.161115 -0.796539 -0.582724
0.16177379 0.57250607 -0.08819116 0.639283 -0.635945 -0.432309
0.56837618 -1.01267576 0.45123586 0.785839 -0.151759 0.599522
1.24129784 1.38443613 -0.51567757 0.909743 -0.287672 0.299354
1.24127102 1.37998247 -0.52005523 0.901958 -0.371566 0.220025
0.42923081 -0.20315975 0.40130907 0.071459 -0.389655 0.918184
0.36622906 -1.03122950 0.20515268 -0.988183 -0.033130 -0.149655
0.37987712 -1.03334904 0.14578123 -0.966208 -0.030615 -0.255941
0.08813720 0.09567087 0.11149822 -0.303581 -0.819512 -0.486044
1.21576846 1.33346832 -0.52323264 0.541589 -0.837260 -0.075339
-0.38395974 1.93934298 -0.58513272 0.073280 0.955216 -0.286693
0.26729169 -0.16085096 0.23539534 -0.869012 -0.490818 -0.062569
-0.52898991 -0.89651930 0.44783473 0.382496 0.900247 0.207973
0.42831779 -0.81631505 0.28840503 -0.115504 -0.041492 -0.992440
-0.70864785 -0.89007366 0.10190358 0.409782 0.738924 -0.534856
-0.54241788 -0.24874276 0.30316624 0.561020 0.121579 0.818826
-0.71396112 -0.89806050 0.43085542 -0.453279 0.587089 0.670720
0.38046193 -0.83248520 0.30776420 -0.479813 -0.033981 -0.876712
0.77746683 1.24613476 -0.11731244 -0.486236 0.869588 -0.085972
-0.70097387 -1.03784180 0.45317176 -0.594520 -0.119494 0.795152
0.02099356 1.03584266 -0.27233711 0.056164 -0.346128 -0.936505
0.23424637 -0.10212572 0.17837994 -0.852830 -0.479811 -0.206063
0.25593048 1.38358116 -0.40620822 0.991390 0.053496 0.119513
-0.48049083 -0.25340971 0.21662013 0.986891 -0.052432 0.152636
0.57487184 -0.31239638 0.35207176 0.560411 0.322758 0.762737
-0.44511303 1.91313803 -0.57657760 -0.741175 0.444045 0.503471
1.16676283 1.53792346 -0.40616336 0.727224 0.052863 0.684362
0.53336662 -0.83925182 0.30885497 0.682792 0.391820 -0.616662
0.27832672 -0.89871854 0.47377738 -0.583270 0.790385 0.187317
-0.49036926 -0.35953769 0.09321772 0.861438 0.365225 -0.352897
0.96999675 1.64050865 -0.50101990 -0.982462 -0.182373 0.038828
-0.50418758 -0.29417947 0.24727218 0.891760 0.200609 0.405611
0.09795722 0.59211057 -0.15610003 0.447460 -0.371025 -0.813708
-0.24061881 1.44734919 -0.49042910 -0.666569 0.442709 -0.599745
-1.21910381 1.23314822 -0.67729443 -0.800282 -0.138082 0.583508
0.57566679 -0.82572746 0.36982486 0.876120 -0.385856 -0.289014
-1.10469365 1.21825218 -0.89644039 0.831579 -0.358194 -0.424468
-0.32684350 1.83704710 -0.59091026 -0.800761 -0.593742 0.079070
-0.32068807 1.82905686 -0.58394015 -0.697877 -0.712385 -0.073995
0.04559288 1.23343682 -0.89628667 0.660295 0.692426 -0.290787
1.05436075 1.42475009 -0.56177384 -0.837733 -0.184331 -0.514029
0.17907566 0.58004385 -0.06871362 0.794530 -0.452866 -0.404517
0.99382341 1.58516717 -0.53280824 -0.619308 -0.555184 -0.555184
0.98010325 1.60902774 -0.51899207 -0.975576 -0.113381 -0.188138
0.08831573 0.06091912 0.26279572 -0.649195 -0.759515 -0.041017
-0.91818511 -1.00309551 0.29155821 -0.428253 0.172753 0.886992
0.30779630 -0.80247384 0.35621935 -0.716784 -0.650327 -0.251586
0.28044447 -0.97124600 0.39179978 -0.801571 0.157318 -0.576832
0.97752923 1.58160818 -0.48852727 -0.949310 -0.232901 -0.211109
0.58715385 -0.27111199 0.33328667 0.752963 0.049818 0.656174
-1.14606082 1.57634521 -0.75874609 -0.794233 0.475251 0.378590
0.57387084 -0.83587658 0.37194249 0.975530 -0.123976 -0.181581
0.55977178 -0.90159321 0.45229876 0.639663 0.609442 0.468414
-0.59100538 -0.23145938 0.32355544 0.215533 -0.015311 0.976376
0.97876984 1.51604402 -0.46467373 -0.922994 -0.082194 -0.375935
-0.55925763 -0.96831453 0.21201625 0.850301 -0.063037 -0.522508
0.33987761 0.41234294 0.45057571 0.744083 0.085912 0.662540
0.26683316 -0.92970806 0.47386363 -0.998806 0.044692 0.019747
-0.66691983 -0.80880374 0.16191608 -0.028759 -0.516295 -0.855928
-0.69024569 -0.81238800 0.16541892 -0.174890 -0.365422 -0.914265
-0.73462856 -0.83581066 0.18200104 -0.506900 0.450761 -0.734757
-0.73952520 -0.83737797 0.18430716 -0.506508 0.516538 -0.690389
-0.76801044 -0.85042161 0.18324570 -0.201253 0.904917 -0.374997
-1.24008691 1.20543468 -0.75469410 -0.745680 -0.591733 -0.306290
0.26689509 -0.16335754 0.21696815 -0.901283 -0.432775 0.019852
0.26809695 -0.16551419 0.22047618 -0.898251 -0.431878 0.081408
0.59298211 -0.94297928 0.41509962 0.914791 0.063135 0.398962
-0.53621173 -0.27629724 0.06096422 0.792664 -0.119564 -0.597819
-0.68043399 -0.16615185 -0.03803087 0.231023 -0.198599 -0.952464
-0.49470285 -0.90085769 0.35725904 0.740920 0.669264 0.055891
-0.49593803 -0.90035146 0.36192384 0.775098 0.622138 0.110308
-0.13314164 0.07850851 0.24204907 0.579888 -0.805971 -0.118914
-1.04787779 1.47903872 -0.57091892 -0.010880 0.999936 -0.002967
1.07703876 1.28977990 -0.54748905 0.086700 -0.040606 -0.995407
1.16757047 1.30868077 -0.58346874 -0.224997 -0.895578 -0.383819
0.65832698 -0.20736669 0.06604022 0.880377 0.448166 -0.155190
-0.95025200 -0.95710099 0.26157206 -0.258668 0.712527 0.652224
-0.00211415 1.12104309 -0.86985612 -0.286334 -0.552103 -0.783068
-0.64677554 -0.28497034 -0.00540878 0.312097 -0.282792 -0.906986
-1.07968760 1.23261464 -0.79662150 0.919144 -0.284256 -0.272713
1.20628810 1.33412099 -0.58144116 0.833576 -0.503205 -0.227895
-0.21951930 1.45040989 -0.51344097 -0.553531 0.479950 -0.680626
0.39047816 -0.88533396 0.24706525 -0.739220 0.413239 -0.531778
-0.03479755 1.08558810 -0.34119439 -0.621180 -0.723907 -0.300157
1.03344071 1.45398641 -0.53926557 -0.837986 -0.194076 -0.510013
-0.46632013 -0.17170386 0.07210806 0.620430 -0.673373 -0.402039
0.61107826 -0.32663307 0.31414470 0.853249 0.017691 0.521203
-0.87036341 -0.91304678 0.28274369 -0.799945 0.336903 0.496573
0.59573746 -0.89100391 0.34760043 0.720176 0.691541 -0.055839
1.19275904 1.32213604 -0.51478958 0.551164 -0.824541 -0.127870
-0.06243936 1.08382118 -0.51072550 -0.758770 -0.651358 -0.001377
-0.05547573 1.07615077 -0.51706958 -0.727953 -0.681642 -0.073808
-0.99314463 1.39553809 -0.68223965 0.886688 0.123823 -0.445479
0.55026001 -0.26467341 0.36659229 0.557248 0.034741 0.829619
-1.07890308 1.47861683 -0.61082715 0.157201 0.927905 0.338052
0.28154385 -0.79498452 0.46301228 -0.894983 -0.365390 0.255921
0.22968088 -0.10395165 0.20783222 -0.827260 -0.556728 -0.075464
1.23892915 1.37219369 -0.61516076 0.803173 -0.588219 -0.094405
1.22435772 1.35508525 -0.60897833 0.580759 -0.813063 0.040583
1.22937799 1.41649210 -0.74329847 0.573574 -0.492837 -0.654312
0.96580285 1.50230742 -0.39860496 -0.715236 0.698373 0.026698
-0.62625772 -0.17649683 -0.02741507 0.220459 -0.236891 -0.946193
-0.63760418 -0.17843896 -0.02954411 0.206338 -0.219824 -0.953469
1.21741128 1.34171641 -0.54153949 0.637276 -0.670211 -0.380390
-0.91266274 -0.94058317 0.26634529 -0.596024 0.471783 0.649751
-0.83916384 -0.86658335 0.20943174 -0.303055 0.928900 -0.212844
0.68732566 -0.94599503 0.23794122 0.507679 -0.517732 -0.688634
1.06854796 1.57869363 -0.36693588 -0.239548 0.533188 0.811373
-0.00297469 1.23355699 -0.96447062 -0.035833 0.985978 0.162981
-0.54815000 -0.31834218 0.05810665 0.790752 0.324288 -0.519181
-0.48548767 -0.22702622 0.11657347 0.799110 -0.478826 -0.363523
1.24463332 1.41732109 -0.69654131 0.841703 -0.229832 -0.488583
-0.44926065 0.45600969 0.31344023 -0.524896 0.789737 -0.317490
1.12130272 1.36207747 -0.64171469 -0.639958 -0.606365 -0.471990
0.49749383 -0.33712819 0.00993479 -0.232524 -0.306704 -0.922965
-1.18013299 1.16510117 -0.82243109 -0.218987 -0.975269 -0.029916
0.35209972 0.42438647 0.43546018 0.763690 0.149123 0.628124
1.14111638 1.61195314 -0.40933883 0.681717 0.477370 0.554419
-1.04512489 1.52325916 -0.67521256 0.633405 0.757365 0.158729
0.36286500 -0.37473315 0.14098737 -0.837727 -0.057532 -0.543049
-1.15565932 1.54378200 -0.70596665 -0.616534 0.439427 0.653292
-0.51774389 -0.29472885 0.26920828 0.707708 0.596051 0.379305
-0.74135637 -0.84629577 0.40222049 -0.487391 -0.074016 0.870041
-0.71087569 -1.03941274 0.44664824 -0.582227 -0.112926 0.805145
0.36420631 -0.29396951 0.36634868 -0.656275 -0.067791 0.751471
0.57566029 -0.80799222 0.34048203 0.644483 -0.516596 -0.563712
-0.73629105 -0.94136202 0.42570871 -0.738199 -0.055902 0.672263
-1.11930382 1.22111762 -0.91942507 0.940412 -0.156963 -0.301642
1.14294398 1.32961559 -0.60487980 -0.052404 -0.906987 -0.417886
0.97939390 1.60226631 -0.51080179 -0.942783 -0.205073 -0.262878
