-0.08247531 0.40263835 0.62040222 0.010249 -0.171957 0.985051
-1.10524786 1.27178037 -0.87231857 0.977486 0.130746 -0.165612
-1.10431612 1.27021313 -0.86851853 0.971963 0.191851 -0.135948
0.93242365 1.38082612 -0.41022715 -0.840096 -0.037368 -0.541149
-1.20424986 1.40016103 -0.88878214 -0.725318 0.567426 -0.389797
-1.23050261 1.38237274 -0.86666667 -0.711203 0.690241 -0.133257
-1.22188354 1.38787866 -0.87297696 -0.630666 0.750940 -0.195830
0.18512194 1.38869238 -0.52451319 0.564262 0.352867 -0.746387
-0.15429372 0.11010084 0.14492579 0.300838 -0.775176 -0.555516
-0.66373599 0.28716543 0.26159781 -0.709190 0.700453 -0.080093
-0.26443252 1.50554812 -0.43875119 -0.779783 0.304578 -0.546965
-0.82673824 -0.27182376 0.20384040 -0.582260 0.675688 0.452127
0.94275683 1.15758872 -0.44353923 -0.709416 0.703752 0.038232
-0.79249293 -0.09496652 -0.00908029 -0.472823 0.853499 -0.219039
0.32870191 0.56136888 0.17406589 0.940146 0.016449 -0.340376
0.39884457 -0.57721388 0.13516007 -0.692714 -0.023887 -0.720816
-0.06891560 0.78998363 -0.23827457 0.684252 -0.402599 -0.608040
0.12696145 1.19346607 -0.36067680 0.566634 -0.783242 0.255848
-0.12859626 0.37419644 -0.07353292 -0.511616 -0.521681 -0.682714
-0.30063644 1.51766980 -0.24138452 -0.836658 0.356325 -0.415975
-0.95152390 1.11102724 -0.54331118 0.871681 0.346535 -0.346535
-0.95522118 1.10936868 -0.55830204 0.806394 0.569131 -0.160678
0.37849981 -0.34494400 0.40762174 -0.498995 0.650205 0.572920
1.08385289 1.10658276 -0.43173721 0.179077 -0.826160 -0.534220
1.09181070 1.11805654 -0.44889864 0.190928 -0.792734 -0.578895
0.85245007 0.95716327 -0.13029046 0.257063 -0.966118 -0.023148
-1.03500438 1.05060482 -0.55781353 -0.221986 -0.958395 -0.179450
-1.03477180 1.04876912 -0.54404396 -0.313424 -0.931915 -0.182483
-1.03857434 1.03275836 -0.50526220 -0.182032 -0.865761 -0.466179
-0.74287188 -0.75731629 0.41574246 -0.657729 -0.405903 0.634535
-0.75075620 -0.74685889 0.41324109 -0.586369 -0.313266 0.747018
-0.76877224 -0.72781819 0.40562040 -0.702977 -0.169263 0.690778
-0.85232592 -0.41177559 0.12170079 -0.889977 -0.114244 -0.441462
0.11723037 0.69913393 -0.16874273 -0.328051 -0.830330 -0.450482
-0.31185907 1.68398428 -0.41575584 -0.718099 -0.018197 0.695703
1.15844285 1.12178302 -0.28283861 0.705490 -0.693405 -0.146537
1.15919459 1.12494946 -0.29364634 0.710107 -0.682619 -0.172564
0.42675135 0.25444776 0.42780066 0.355709 0.563613 0.745528
-0.71866244 -0.70045573 0.44196847 -0.413136 0.035867 0.909963
-0.70712346 -0.72397900 0.44681171 -0.369242 -0.027207 0.928935
-0.16807638 0.43415597 -0.04654557 -0.453740 -0.139723 -0.880112
-0.16242047 0.43476200 -0.05031129 -0.523339 -0.188523 -0.831009
0.28071779 0.43870044 0.48048899 0.780970 -0.085487 0.618690
0.70597249 -0.05563739 0.18713239 0.991227 -0.009968 0.131794
0.03521317 1.68258488 -0.34218574 0.452594 0.883907 -0.117760
0.04615072 1.68284667 -0.32988328 0.235759 0.847210 -0.476080
-0.64295894 -0.78096694 0.45824692 -0.250757 -0.537337 0.805227
-0.62955320 -0.78809971 0.45647570 -0.194566 -0.511302 0.837087
-0.31240186 0.10749874 0.50282973 0.255192 -0.389504 0.884965
0.95448434 1.01038361 -0.35127619 0.139877 -0.875310 -0.462890
0.17900150 -0.02615734 0.24708296 -0.701070 -0.646274 0.301380
0.15982333 0.50105208 -0.02544326 0.755099 0.079713 -0.650747
0.12043314 0.54968625 -0.08874004 0.828685 -0.254624 -0.498446
-1.21722627 1.46695817 -0.75381845 -0.893537 0.014561 0.448754
0.30426607 -0.57486326 0.49554142 -0.698017 0.206762 0.685581
0.26622498 -0.50994003 0.39561331 -0.915032 0.232000 0.329988
0.26458070 -0.51637876 0.39567882 -0.927001 0.225717 0.299536
0.28384984 -0.55341065 0.46334729 -0.875942 0.103302 0.471226
0.27618927 -0.54589874 0.44652933 -0.880129 0.130231 0.456522
0.26479226 -0.53622103 0.41504481 -0.957036 0.169045 0.235598
-0.37240916 1.32302630 -0.29379278 -0.611747 0.289102 -0.736332
0.55949897 0.25109977 0.34403554 0.551722 0.785689 0.279813
-0.53527939 0.27085164 0.46040165 -0.294370 0.568054 0.768544
-0.53096819 0.26501954 0.46573254 -0.252289 0.565692 0.785075
0.26641127 -0.96578217 0.55035114 -0.934458 0.262772 0.240289
0.36987901 0.05069035 0.49481672 0.001253 -0.344659 0.938727
0.37760204 0.05407951 0.49612281 0.122199 -0.269363 0.955254
-0.26797748 0.18343310 0.02636119 0.154646 -0.209227 -0.965561
0.51748788 -0.67257810 0.18836993 0.182420 -0.728148 -0.660699
0.58115232 -0.14977394 -0.03887604 0.552103 -0.286334 -0.783068
-0.61910075 -0.22295085 0.32786399 0.163966 0.312775 0.935568
-0.46220550 1.31757486 -0.21308896 -0.645485 0.632142 -0.428656
0.67052329 -0.00083095 0.28724581 0.981777 0.041350 0.185486
0.67278826 -0.01254507 0.27476957 0.982599 0.093063 0.160745
0.20505144 1.30774879 -0.40389773 0.238973 -0.847822 0.473380
0.20724572 1.30065775 -0.41637728 -0.065565 -0.866289 0.495222
-0.72135949 -0.79654151 0.16555387 -0.416008 -0.704397 -0.575119
0.24496353 1.33271742 -0.47181231 0.919934 0.062936 -0.386988
0.12165306 1.06879270 -0.25115722 0.286003 -0.306536 -0.907875
0.04177784 1.05093849 -0.56808472 0.333290 -0.655200 0.677961
0.05525750 1.05725539 -0.56817394 0.306136 -0.588229 0.748510
-0.25321701 1.56116986 -0.34408137 -0.794933 0.555364 -0.244236
-0.25832593 1.55658293 -0.33662978 -0.804421 0.579243 -0.131848
0.59347725 -0.75566232 0.48740864 0.894822 -0.125812 0.428327
-0.06733115 1.11162019 -0.72811568 -0.470370 -0.873134 0.128021
1.03446901 1.04085243 -0.37128556 0.165689 -0.755481 -0.633874
0.28160709 -0.75515646 0.49485686 -0.922279 -0.071151 0.379920
0.53562737 -0.17512238 -0.04083164 0.063010 -0.513885 -0.855542
0.33835167 -0.90300721 0.30610389 -0.747873 0.185817 -0.637305
0.59066045 0.25270799 0.19218801 0.797739 0.602146 -0.032133
-0.08428372 1.10549390 -0.46589586 -0.767198 -0.614064 -0.185291
-0.43397117 -0.14828309 0.38081193 0.271467 -0.738200 0.617548
-0.43772462 -0.13976122 0.39006296 0.249639 -0.598191 0.761477
-0.54615432 -0.71027076 0.12749971 0.477476 -0.470867 -0.741823
-0.70713311 -0.67983806 0.44486785 -0.362892 -0.070452 0.929164
0.07880684 1.52993608 -0.56682152 -0.207495 0.834524 -0.510408
0.10000355 1.54551983 -0.55153650 -0.027666 0.912972 -0.407083
0.09688957 1.54284048 -0.55646420 -0.086246 0.863875 -0.496268
0.09763898 1.54890966 -0.53159267 0.108194 0.976233 -0.187785
0.09577889 1.54928899 -0.52815551 0.123614 0.969797 -0.210271
0.09812526 1.55287230 -0.51396364 0.520851 0.759234 -0.390230
0.10436106 1.56293750 -0.49794900 0.628419 0.199180 -0.751942
0.39815980 -0.05582801 0.45628050 -0.082503 -0.255125 0.963382
-0.58590364 -0.97109747 0.17742920 0.710608 -0.139718 -0.689576
-0.02615715 1.08668673 -0.73503762 -0.168692 -0.972834 0.158545
-0.08414154 1.11995876 -0.70231766 -0.067938 -0.715519 0.695282
-0.09491622 1.13309920 -0.69351035 -0.077000 -0.681379 0.727869
-0.03483379 1.08756864 -0.73178589 -0.236840 -0.934747 0.264868
-0.05380781 1.10098767 -0.71926630 -0.035151 -0.631314 0.774730
-0.30617040 1.89365530 -0.59695679 0.535563 0.468827 -0.702406
0.17569040 0.59074348 -0.09072236 0.829448 -0.396555 -0.393395
0.03676583 1.60060441 -0.47483572 0.155466 0.955385 -0.251137
-0.89496499 1.00915623 -0.32482502 0.201023 -0.979553 0.008134
-0.89275509 1.00949538 -0.32723984 0.218286 -0.975798 -0.012979
-0.88953304 1.00962639 -0.33331376 0.233353 -0.969601 -0.073625
0.09963643 1.33361578 -0.65475738 0.779609 -0.543654 -0.310887
0.33162081 -0.88362890 0.33869487 -0.709167 0.601072 -0.368505
0.57521188 0.16727334 0.39997372 0.873420 0.028437 0.486136
0.56808406 0.17477284 0.41181594 0.839289 0.090077 0.536172
0.55535227 0.18618415 0.42572612 0.720786 0.216392 0.658515
-0.07182011 0.31984127 0.59253818 -0.035274 -0.664563 0.746399
1.11595654 1.40199494 -0.68394667 -0.827180 -0.455343 -0.329296
-0.81281793 -0.59849089 0.19708967 -0.952995 -0.250647 -0.170226
-0.69095862 -0.12175126 0.34568125 -0.521387 -0.471413 0.711284
1.24141288 1.24850345 -0.34605455 0.822618 -0.353456 -0.445386
-0.55313069 1.29697788 -0.10519461 -0.391098 0.622127 -0.678234
-1.05965519 1.43084657 -0.36032999 -0.156163 0.895431 0.416913
1.23501122 1.29024494 -0.35918576 0.948578 0.177773 -0.261911
0.21158016 0.37839952 0.54662961 0.639612 -0.395006 0.659445
0.19810715 0.39272949 0.56415546 0.538012 -0.169346 0.825751
-0.31366444 1.91467917 -0.47491625 0.018111 0.773209 0.633892
-0.31397989 1.92171454 -0.48498434 0.059573 0.868655 0.491822
-0.29992405 1.89563274 -0.45781192 0.095210 0.669398 0.736778
-0.50447834 1.32591093 -0.16152646 -0.638533 0.544185 -0.544185
-0.25915384 1.83806455 -0.60296696 0.431382 0.361855 -0.826420
0.92470843 0.98265672 -0.22419761 0.001079 -0.994040 0.109010
-0.79301786 1.29779196 -0.28167784 0.681717 0.554419 0.477370
-0.99236077 1.01692474 -0.48030663 -0.234203 -0.961670 -0.142615
-0.99949384 1.01841319 -0.48688778 -0.259197 -0.960707 -0.099295
-1.00037634 1.01859665 -0.49526945 -0.222185 -0.968727 -0.110458
1.03618991 1.59758580 -0.38409168 -0.180847 0.406544 0.895554
0.17148918 0.52155101 -0.01713657 0.503841 -0.248069 -0.827409
-0.53881603 0.91490114 -0.00135891 -0.389840 -0.892953 -0.225077
-0.53875083 0.91715276 -0.01105721 -0.356941 -0.908972 -0.215321
-0.53584719 0.93102252 -0.05520746 -0.327124 -0.820182 -0.469352
-0.53923666 0.92419583 -0.03884027 -0.271375 -0.897169 -0.348487
-0.53993976 0.92761058 -0.04667024 -0.266540 -0.863588 -0.427986
-0.51073790 0.89264184 -0.00353402 -0.693337 -0.683946 -0.226939
-0.52475959 0.91294426 -0.02510734 -0.542333 -0.793850 -0.275096
-0.17789899 1.78521967 -0.40694845 0.661370 0.513277 0.546934
-0.18247937 1.81745064 -0.45519036 0.709859 0.695039 0.114111
-0.19460377 1.83225071 -0.48310170 0.731615 0.680473 0.041198
-0.95941329 1.43132937 -0.36531591 0.090060 0.899217 0.428133
-0.95125824 1.43507051 -0.37170458 -0.039009 0.897216 0.439865
-0.14078745 0.60499036 -0.15831567 -0.386700 -0.035393 -0.921526
0.16963041 1.39442670 -0.55095345 0.994820 0.100673 0.014073
0.14985970 1.24863029 -0.43311745 0.887840 -0.391125 0.242408
0.14600281 1.23773193 -0.43456599 0.927568 -0.333366 0.168775
0.14991477 1.24258256 -0.44499508 0.865401 -0.460256 0.198104
0.15076172 1.24171841 -0.45236614 0.824860 -0.541454 0.162585
-0.22007592 1.82938612 -0.57360286 0.722736 0.503423 -0.473517
-0.22954546 1.61806786 -0.35094419 -0.929980 -0.101526 0.353311
0.08117981 1.40359604 -0.65198839 -0.251311 0.557256 -0.791397
-0.79868090 -0.10004828 0.03630578 -0.870042 0.488616 -0.065427
-0.29037762 0.49828041 0.02620781 -0.759866 0.501675 -0.413432
-0.29556903 0.49428377 0.03057659 -0.744371 0.483594 -0.460487
-0.30811438 0.48221704 0.03485825 -0.737207 0.509613 -0.443644
0.65435374 -0.44524279 0.28125277 0.968210 -0.089626 -0.233532
-1.24899173 1.25067961 -0.89916945 -0.802443 -0.006858 -0.596689
0.32076633 -0.46900201 0.15571259 -0.562031 0.163364 -0.810823
-0.26196873 0.36519438 -0.01002847 -0.203876 -0.122832 -0.971260
0.55638182 -0.87157995 0.45804197 0.737914 -0.434164 0.516705
0.55421793 -0.87247473 0.46045700 0.757026 -0.438451 0.484431
-0.84880155 -0.44237357 0.13012001 -0.961390 -0.123589 -0.245876
-0.79149997 1.03460026 -0.30476218 0.345002 -0.109589 -0.932182
0.16608776 0.49204308 -0.01919042 0.755887 0.098339 -0.647274
0.17053862 0.48677471 -0.01464251 0.758940 0.116874 -0.640586
-0.13530028 1.00099814 -0.26371279 0.433608 0.559869 -0.706067
-0.50575948 0.88805580 -0.00510497 -0.734484 -0.644420 -0.212736
-0.54346329 -0.63369620 0.08541203 0.128032 -0.353810 -0.926513
-0.83361185 -0.26911256 0.09671282 -0.978231 0.079382 -0.191738
-0.96903914 0.99806285 -0.38649991 -0.250091 -0.963173 -0.098754
0.61804003 -0.49350166 0.11428981 0.479461 -0.411198 -0.775263
0.58777690 -0.52757633 0.12109955 0.555716 -0.351575 -0.753376
0.54340506 -0.59009230 0.12300926 0.589096 -0.372492 -0.717088
0.54081213 -0.60187894 0.12677121 0.668663 -0.467561 -0.578167
0.53143537 -0.60774207 0.12207888 0.373806 -0.559893 -0.739451
0.36858991 0.67905915 0.09179327 0.303631 -0.899044 -0.315480
0.26811770 -0.44888777 0.29839143 -0.833244 0.519836 0.188346
0.26072195 -0.46186495 0.29947174 -0.890946 0.452864 0.033595
0.25877672 -0.46606570 0.30133224 -0.900793 0.433910 0.017145
0.24663565 -0.50244099 0.33929047 -0.945962 0.226537 0.232028
-0.01644094 0.34687787 -0.08612853 0.143597 0.023744 -0.989351
-0.03194376 0.32092482 -0.09695446 0.108483 -0.020820 -0.993880
0.95383042 1.36098444 -0.09508327 0.082748 0.648918 0.756345
-0.07530151 1.44665074 -0.64640468 0.209542 0.721755 -0.659668
0.33733323 -1.01413012 0.28933215 -0.915781 0.022209 -0.401063
-0.58279318 -0.13115878 0.39623791 -0.130864 -0.545511 0.827824
0.23743533 1.51421928 -0.44017893 0.959953 -0.159334 -0.230441
1.11590004 1.11335719 -0.38779643 0.601485 -0.727942 -0.329114
-0.02752116 1.46225727 -0.61103547 0.107550 -0.257861 -0.960177
-0.76500440 1.20827007 -0.37909496 0.962816 -0.254449 -0.090783
-0.46913022 -0.74520487 0.35198683 0.920487 0.158318 0.357267
-0.47128740 -0.74300557 0.35660687 0.916134 0.186646 0.354770
-0.46282902 -0.75658369 0.33850032 0.937111 0.064402 0.343038
0.17091373 1.73952627 -0.37777969 -0.713922 0.620028 0.325393
0.65608054 1.22017694 -0.11077050 -0.069467 0.835023 -0.545813
-1.05432963 1.11135435 -0.21394202 -0.597588 -0.402254 0.693599
1.00013673 1.30084145 -0.49789798 -0.584575 -0.085160 -0.806858
0.36724582 -0.15110880 0.41286287 -0.438244 -0.578215 0.688193
0.35334241 -0.15569369 0.39566967 -0.395807 -0.664094 0.634284
0.37205985 -0.17226745 0.39476234 -0.547650 -0.340868 0.764126
0.81404597 0.94002879 -0.10138619 0.604866 -0.777684 -0.171303
0.79705244 0.91457933 -0.08206233 0.570316 -0.806826 -0.154180
0.73444384 0.90887970 -0.02311221 0.162678 -0.974809 -0.152590
0.69622791 0.89534354 0.01347861 -0.007692 -0.992232 -0.124166
0.96000564 1.39033818 -0.11786342 -0.220206 0.726212 0.651249
0.97670472 1.39688468 -0.12262915 -0.018154 0.682852 0.730331
-0.50409895 -0.14489521 -0.00503108 0.500569 -0.591581 -0.632031
0.95225197 1.29731250 -0.05831235 0.261856 0.353580 0.898005
-0.08851377 1.20938909 -0.88342619 -0.470797 0.514051 -0.717009
-0.09678934 0.83670938 -0.27825278 0.257725 -0.351978 -0.899827
-0.76026058 0.07093035 0.30291668 -0.906833 0.097999 0.409938
-0.09952224 0.61798084 -0.17628641 -0.263474 -0.139019 -0.954597
-0.23703994 0.65404218 -0.09521770 -0.413769 -0.882410 -0.223939
-0.63560212 0.24008821 0.08146861 -0.566383 0.748145 -0.345672
-0.46795517 -1.00515020 0.46927175 0.845116 -0.060265 0.531176
-0.46746257 -1.01543319 0.46720675 0.836755 0.015015 0.547372
0.14568576 0.39700499 0.59095621 0.464503 -0.056179 0.883788
0.16494730 0.39631629 0.58108711 0.440744 -0.081517 0.893924
0.18168426 0.39358446 0.57295513 0.446687 -0.142193 0.883319
-0.26334894 1.77585983 -0.37765935 -0.295876 0.352949 0.887629
0.40422350 -0.77864444 0.61390966 -0.255678 -0.236118 0.937485
-0.02571275 0.34308356 0.60961336 0.114752 0.171511 0.978476
-0.49485311 -0.97488487 0.50327349 0.493861 0.264734 0.828262
-0.41075456 1.35252488 -0.23474330 -0.523617 0.560658 -0.641473
-0.41122040 0.70560360 0.18585546 -0.878674 -0.474401 0.053628
0.25380149 1.31556296 -0.43154493 0.982959 0.182201 0.024371
0.25370991 1.31602490 -0.43311632 0.979409 0.201881 -0.001154
0.25347909 0.15156141 0.51153564 0.188665 -0.473891 0.860135
-0.57395869 -0.73323321 0.45942491 0.184150 -0.084148 0.979289
0.35046324 0.39717290 0.06895471 0.747122 0.292769 -0.596737
-0.69872904 -0.72354674 0.44946873 -0.273633 0.043731 0.960840
-0.69957471 -0.73408431 0.44937655 -0.349919 -0.034863 0.936131
-0.50132841 0.83725262 0.09307718 -0.951861 -0.301060 0.057650
-0.37876722 1.23028004 -0.24736205 0.449404 -0.522369 -0.724684
0.51986927 0.91435421 0.19652186 0.730233 -0.600702 0.325448
-0.95007056 1.34506500 -0.64163131 0.788052 0.432053 -0.438526
-0.95592600 1.34299660 -0.65270036 0.710635 0.333364 -0.619569
-0.96883100 1.33598912 -0.66429561 0.560594 -0.057895 -0.826064
0.56682998 -0.99229258 0.45432889 0.795520 -0.004122 0.605914
-0.48539573 0.35880300 0.13720064 -0.707717 0.501230 -0.497900
-0.47946534 0.36745739 0.13541743 -0.658802 0.223773 -0.718266
-0.48797059 0.35536951 0.13387090 -0.671618 0.635314 -0.381189
-0.50734490 0.34122631 0.14000173 -0.568377 0.728898 -0.381648
-0.60445279 -0.98237383 0.51197731 -0.103578 0.198420 0.974629
0.17060237 1.23593688 -0.64535761 0.997961 0.005214 0.063611
0.17080133 1.24413514 -0.64616907 0.998503 0.054614 0.003091
-1.04495931 1.42754328 -0.34772354 -0.037187 0.942504 0.332120
-0.61621934 0.25036973 0.08572882 -0.268697 0.932702 -0.240561
-0.61479932 0.25262779 0.09427830 -0.266429 0.920261 -0.286592
-0.61205894 0.26243430 0.11465224 -0.310685 0.788662 -0.530554
0.20470442 -0.05423194 0.23962897 -0.763312 -0.557619 0.326215
0.41436154 0.90977442 -0.14417425 0.878154 -0.136538 -0.458480
0.41241154 0.89247376 -0.14077972 0.843170 -0.226365 -0.487671
-1.13228917 1.07629180 -0.55401516 -0.614318 -0.746973 -0.254255
-1.12936664 1.09733140 -0.60396987 -0.280450 -0.768465 -0.575160
0.64767003 -0.39594507 0.28544053 0.958349 0.236613 -0.159945
-0.96405303 1.24257302 -0.13403226 -0.482193 0.449279 0.752089
-0.95835406 1.23394418 -0.12456770 -0.629859 0.485411 0.606344
-0.97201288 1.25560284 -0.14455715 -0.449210 0.429749 0.783279
-0.98349631 1.26606250 -0.15842652 -0.509058 0.459313 0.727936
0.71419567 0.96839362 -0.16897209 -0.344618 0.058965 -0.936889
0.68134719 0.94085741 -0.15215977 -0.142504 -0.622518 -0.769522
-0.94472712 1.11736095 -0.52907205 0.814389 -0.147394 -0.561289
-0.95350021 1.11694777 -0.54275352 0.897376 0.078572 -0.434214
0.17664467 1.27882206 -0.43174553 0.598526 -0.756448 0.263730
-0.54177243 -0.13223219 0.40050876 -0.168399 -0.455409 0.874210
0.12190354 0.04219451 0.27347943 -0.268324 -0.962221 -0.046177
0.13280785 0.03821355 0.28941712 -0.477631 -0.876349 0.062300
-0.51106149 -0.61867142 0.41653031 0.726271 0.020990 0.687088
0.25838032 1.62173486 -0.33423418 0.536735 -0.034495 0.843046
0.25686741 1.51148951 -0.29186842 0.702227 0.702227 -0.117285
0.26166290 1.50865233 -0.27693567 0.642531 0.763275 0.067559
0.64182448 1.18255413 -0.14660679 -0.352244 0.254972 -0.900507
0.64490718 0.93974715 -0.13544948 -0.332784 -0.706151 -0.624984
0.64830101 0.91741818 -0.07877219 0.107354 -0.961015 -0.254805
0.36449775 0.68075252 0.26471633 0.995881 0.085796 0.029323
0.36706138 0.66915637 0.26733559 0.972390 0.230716 -0.035030
0.36419645 0.68262511 0.25683010 0.999137 -0.011272 0.039965
0.38147596 0.71060234 0.23537742 0.862612 -0.471995 0.181992
-0.23229070 1.64333761 -0.34858605 -0.739819 -0.216494 0.637023
-0.48084468 1.42158699 -0.05523624 -0.528553 0.198397 -0.825391
0.16987838 1.61271644 -0.20933276 0.656035 0.747437 0.104671
0.44172052 -0.49123016 0.53027928 -0.198868 0.290654 0.935934
0.45314750 -0.49948585 0.53694862 -0.222338 0.361844 0.905337
0.43873823 -0.48527128 0.52836519 -0.164591 0.250232 0.954093
-0.48608759 0.82143807 0.03351091 -0.883236 -0.423186 -0.202009
-0.48264423 0.81067979 0.04762658 -0.835491 -0.533011 -0.133620
-0.47252896 0.79341990 0.05560501 -0.839172 -0.532968 -0.108327
-0.56581324 0.98100126 -0.14597994 0.343365 -0.613500 -0.711139
0.09995102 0.06846095 0.37256077 -0.528363 -0.823759 0.205559
0.09452100 0.07218324 0.37404418 -0.579609 -0.790654 0.197281
-0.63391447 -0.27332371 -0.00540632 0.270992 -0.276727 -0.921946
-0.62944019 -0.27573824 -0.00331696 0.269592 -0.289775 -0.918341
-0.40010840 -0.15116799 0.16196084 0.702967 -0.671514 -0.234322
-0.46030855 0.85144228 -0.12824814 -0.966512 -0.146206 -0.210899
-0.50366521 -0.77204394 0.19855584 0.686976 -0.377260 -0.621079
-0.42322937 -0.61330873 0.20473705 0.903824 -0.422691 0.066598
-0.65161252 -0.80562609 0.15905736 -0.034793 -0.563643 -0.825285
-0.79996192 -0.58339435 0.13197611 -0.382113 -0.521950 -0.762600
-0.79870522 -0.57746369 0.12828164 -0.366387 -0.688412 -0.625979
-0.59047067 -0.76489323 0.46403536 0.287573 0.028633 0.957331
1.01703167 1.42613471 -0.50394869 -0.865581 -0.074353 -0.495219
1.02815592 1.44524121 -0.52666163 -0.841726 -0.174304 -0.510995
1.02500486 1.45333791 -0.52442425 -0.844356 -0.197167 -0.498185
-0.21389849 0.54025209 -0.04118589 -0.605040 -0.148633 -0.782199
0.56738025 -0.63341749 0.16918692 0.701960 -0.495207 -0.511881
-0.76870912 0.04188828 0.03334099 -0.787871 0.488190 -0.375407
-0.12439270 1.72449124 -0.36714214 0.577099 0.803763 0.144647
-0.32426929 0.04485188 0.02569202 0.450286 -0.203594 -0.869363
-0.30229816 1.17843783 -0.25906593 -0.063992 -0.048807 -0.996756
0.54655892 0.25610518 0.35910931 0.648148 0.667839 0.365917
0.53870356 0.26514024 0.35989469 0.656771 0.663322 0.358685
-0.56741238 -1.01004612 0.20547637 0.774383 -0.098079 -0.625069
-0.82734615 -0.18982206 0.12997681 -0.943180 0.225093 0.244426
-0.15246624 1.04436648 -0.23562390 0.327408 0.268680 -0.905878
-0.25618327 1.35503709 -0.51282996 -0.766583 0.161784 -0.621431
-0.12647794 0.56628048 -0.13740799 -0.296090 -0.737825 -0.606585
-0.61370003 0.92041159 -0.00726545 0.633391 -0.767968 0.095082
0.87245506 0.99718362 -0.30306068 -0.347514 -0.849306 -0.397382
0.21656318 0.36484042 0.53231448 0.594744 -0.371920 0.712710
-1.23194826 1.33101797 -0.49077347 -0.801342 0.524257 -0.288105
-1.23668039 1.32675600 -0.48752353 -0.768130 0.553246 -0.322326
-0.86389446 1.01258206 -0.27576005 -0.121486 -0.821128 -0.557665
-0.64249146 -0.48829043 0.04067467 -0.052717 -0.315016 -0.947621
-0.65151000 -0.49466679 0.04232992 0.213005 -0.223859 -0.951061
-0.65565968 -0.50614393 0.04145883 0.374312 -0.217013 -0.901552
-0.67069095 -0.54156786 0.05698538 0.293709 -0.624332 -0.723840
-0.68714017 -0.56801689 0.06383985 0.334787 -0.409531 -0.848647
-0.38749012 1.15235519 -0.24674000 -0.183372 -0.180771 -0.966280
-0.64936072 1.27856708 -0.19162808 0.320797 0.900302 -0.294187
0.34377113 -0.77446693 0.58088273 -0.633321 -0.064625 0.771186
-1.24012065 1.31447208 -0.87597495 -0.794197 -0.495771 -0.351372
0.49478260 -0.58889878 0.56380057 0.296532 0.078989 0.951751
-0.28275093 0.64236134 -0.04204702 -0.508078 -0.672407 -0.538261
0.50929868 -0.77230269 0.25904512 -0.041326 -0.417262 -0.907846
0.50981039 -0.76161122 0.25371918 -0.017424 -0.478498 -0.877916
-0.20004816 0.39277115 0.59167159 -0.402822 -0.281215 0.871007
-0.76541084 0.05620260 0.04951908 -0.797800 0.470333 -0.377229
-1.22493935 1.30981016 -0.90397841 -0.976974 -0.102774 -0.186975
-1.22433066 1.28543413 -0.91192889 -0.982486 0.140007 -0.122963
-0.89916813 -0.92257905 0.13223243 -0.693322 0.512891 -0.506209
1.05885279 1.54374111 -0.61423498 -0.752379 -0.404875 -0.519617
0.84468031 1.22244704 -0.28850383 -0.604487 0.260419 -0.752847
0.32527846 0.63506114 0.13422722 0.999274 0.023670 -0.029844
0.51876193 -0.89944553 0.16586883 0.126500 0.510363 -0.850604
-0.46941802 1.37467611 -0.14047202 -0.629668 0.643030 -0.435924
-0.80370998 -0.26687321 -0.02378269 -0.551407 -0.548034 -0.628975
0.42368841 0.77948469 0.10056976 0.890586 -0.436061 0.129256
0.97568423 1.00013614 -0.17407581 0.253919 -0.875945 0.410177
0.27063471 -0.45811436 0.35847920 -0.948508 0.256463 0.185902
0.27196777 -0.45343003 0.35922199 -0.954244 0.242241 0.175324
-1.14047527 1.07067192 -0.47674659 -0.462501 -0.886570 0.009277
-1.13837862 1.06974638 -0.49156076 -0.446565 -0.894464 -0.022662
-0.55310535 -0.11821142 -0.02953431 0.356535 -0.365795 -0.859696
-0.32839692 1.71078324 -0.43097028 -0.641799 -0.038085 0.765927
-0.33181852 0.40471861 0.04577359 -0.527732 0.314088 -0.789207
-0.33980235 0.39961839 0.04859249 -0.419906 0.397553 -0.815862
-0.91450000 1.27084923 -0.57518399 0.767198 -0.073686 -0.637164
-0.92772996 1.26978683 -0.59150761 0.834733 -0.034607 -0.549567
-0.93582577 1.26299214 -0.60490614 0.822255 -0.127972 -0.554544
-0.94592679 1.25905752 -0.61649156 0.737900 -0.219966 -0.638058
-0.93133199 1.36885130 -0.59551090 0.636448 -0.599504 -0.485313
0.47267911 0.84767705 0.12349004 0.688487 -0.724944 0.021033
0.41892493 0.39318612 0.14593233 0.714848 0.624484 -0.314662
-0.03402477 0.14858200 0.23755297 0.127108 -0.945949 0.298369
0.46642652 0.84161383 0.15753870 0.715262 -0.662048 -0.223813
0.44288343 0.80964029 0.17238185 0.653249 -0.730465 -0.199218
-1.09562457 1.18358481 -0.22326908 -0.755377 -0.107490 0.646414
-1.09105825 1.16906869 -0.21972933 -0.805932 -0.179936 0.564001
-1.08387363 1.16170371 -0.21219990 -0.689277 -0.290814 0.663570
-1.05540943 1.13682675 -0.20589294 -0.522133 -0.246348 0.816511
-1.07341313 1.14532065 -0.21178426 -0.547650 -0.340868 0.764126
-1.05517673 1.12676692 -0.20841241 -0.558346 -0.237958 0.794749
0.49170053 -0.39166099 0.49247131 -0.006946 0.701511 0.712624
0.21951489 1.76117444 -0.54897946 -0.605499 0.394317 -0.691292
-0.49406242 -0.76062858 0.20481497 0.790405 -0.313299 -0.526406
-0.13931392 1.54561222 -0.56561536 -0.128654 0.797063 -0.590033
-0.09831117 1.55468631 -0.55911618 0.048784 0.961921 -0.268938
-0.05137415 1.54074430 -0.56146765 0.127765 0.942774 -0.307982
0.48571238 -0.40651143 0.50612527 -0.066848 0.567493 0.820660
-0.94501650 1.24899781 -0.12347088 -0.725182 0.536866 0.431145
-0.93934202 1.24922884 -0.11379334 -0.867479 0.491898 0.074275
-0.95520282 1.25759614 -0.13752182 -0.442581 0.488649 0.751894
-0.96336198 1.28094161 -0.15589724 -0.331237 0.583301 0.741648
0.28134370 0.26237234 0.00418852 0.047151 -0.026195 -0.998544
0.24699098 -0.13443942 0.30404642 -0.673620 -0.508995 0.535873
-0.76848459 -0.78570092 0.36954415 -0.769207 -0.297809 0.565359
-0.48558599 0.39129722 0.40045652 -0.583779 0.647709 0.489567
0.25074235 1.42844880 -0.42151886 0.937580 0.184192 -0.294985
-0.03618347 0.41765186 0.62087888 0.001195 -0.256844 0.966452
1.16397774 1.34298182 -0.65373272 -0.298275 -0.951638 0.073600
-0.41561747 0.75083292 -0.02424317 -0.822312 -0.435714 -0.366000
-0.67274475 -1.04336011 0.02056473 0.381120 -0.799227 -0.464741
-0.67918462 -1.04217470 0.02644413 0.167960 -0.943578 -0.285395
-0.36729264 1.04041421 -0.27895620 -0.254814 0.385946 -0.886632
0.17140190 1.40778077 -0.54106921 0.960000 -0.259704 -0.104657
-0.50357479 -0.35820213 0.33081278 0.649751 0.596024 0.471783
-0.49249339 -0.36663052 0.32786635 0.563670 0.594138 0.573826
-0.23602602 0.07764325 0.12845796 0.765275 -0.491147 -0.416088
0.01966230 0.54666716 -0.13996832 0.061197 -0.433820 -0.898919
0.97578955 1.57392013 -0.44739309 -0.979586 -0.081531 0.183748
0.99697268 1.23399150 -0.55767155 -0.542724 0.026106 -0.839505
-0.80401319 -0.63265949 0.16934021 -0.897162 -0.380303 -0.224658
-0.34542429 1.24619985 -0.24198931 0.166063 -0.333522 -0.928001
-0.33823434 1.23919058 -0.24197538 -0.007300 -0.061533 -0.998078
-0.03937668 0.10414789 0.05923559 0.060471 -0.991496 -0.115237
-1.00523078 1.40971649 -0.31331587 -0.123496 0.917197 0.378812
-1.00211167 1.40891206 -0.30888423 -0.185743 0.920210 0.344547
0.24944241 -0.61899412 0.32418099 -0.972362 -0.207555 -0.106922
0.28497875 -0.63236451 0.48631814 -0.833859 0.162015 0.527665
0.42231029 0.89408755 -0.11819261 0.949983 -0.126221 -0.285659
-0.46309379 -0.14775759 0.38734788 0.122895 -0.786230 0.605590
-0.46558955 -0.14277692 0.39410934 0.149332 -0.731575 0.665205
0.27144971 -0.73881406 0.38376799 -0.959055 -0.260853 -0.110311
0.27030203 -0.74759966 0.40880784 -0.965722 -0.257116 -0.035676
0.27400666 -0.75767922 0.41096413 -0.940732 -0.331946 -0.069538
0.27723241 -0.77518821 0.41829419 -0.997135 -0.065615 -0.037648
1.16228497 1.12680590 -0.28719354 0.720807 -0.675283 -0.156301
1.16298330 1.13126373 -0.30317497 0.720167 -0.664412 -0.199788
1.18487382 1.16321111 -0.32889307 0.809029 -0.585165 -0.055258
1.19291878 1.17626131 -0.33875552 0.855438 -0.516569 -0.037193
1.19489121 1.18053639 -0.33525154 0.866480 -0.498800 -0.020276
1.20534408 1.20132792 -0.36421183 0.838080 -0.524724 -0.149288
1.19860291 1.18715954 -0.34154215 0.872056 -0.488406 -0.031291
-0.90897924 1.30004942 -0.57383662 0.803152 -0.079022 -0.590511
-0.92255288 1.29889488 -0.59180444 0.798183 -0.271288 -0.537872
-0.23127723 1.27652133 -0.47140425 -0.308739 -0.884049 0.350909
-0.24074677 1.27627695 -0.48724633 -0.569171 -0.811623 0.131575
1.21077919 1.38241422 -0.27565783 0.901762 0.314362 0.296652
-0.44518176 0.92781729 -0.18355590 -0.748016 -0.387921 -0.538506
0.31891152 1.76228178 -0.45294130 0.403726 -0.478310 -0.779888
0.03923986 1.47163916 -0.61145884 0.144655 -0.293367 -0.944992
0.53390890 -0.96256596 0.49385366 0.666545 -0.196406 0.719126
0.16988108 1.24060285 -0.34711465 0.761733 -0.573296 0.301819
0.16374192 1.23837054 -0.33980691 0.747423 -0.552018 0.369641
0.61140364 -0.63171113 0.48656195 0.800558 -0.154126 0.579095
0.61058724 -0.64000148 0.48437923 0.854171 -0.202659 0.478876
-1.17790985 1.10872030 -0.53206736 -0.555442 -0.822172 -0.124571
-0.35344157 0.53900105 0.11254641 -0.910324 0.130046 -0.392936
-0.50581300 -0.60511863 0.09591170 0.468396 -0.366084 -0.804107
-0.48491177 -0.59157628 0.09856623 0.533982 -0.428178 -0.729059
-0.12143575 1.14417088 -0.76737428 -0.763566 -0.475798 -0.436557
-0.88712549 1.40290463 -0.61247605 0.725381 0.067779 -0.685002
-0.90140170 1.40172994 -0.62422949 0.599574 0.171524 -0.781723
0.23746364 -0.50493765 0.28529954 -0.972930 0.228427 0.035050
0.24728242 -0.56821853 0.35177472 -0.992280 -0.005482 0.123898
0.24186771 -0.54241866 0.32245949 -0.956431 0.028680 0.290546
-0.11964930 0.90367818 -0.28349867 0.109375 0.243199 -0.963790
-0.12806049 0.99547333 -0.26409811 0.346921 0.540551 -0.766453
-0.83401775 0.97684324 -0.25682724 -0.216392 -0.720786 -0.658515
-0.83697814 0.98815846 -0.26571310 -0.330332 -0.649273 -0.685073
-0.83846539 1.00098228 -0.27678746 -0.432165 -0.619047 -0.655755
-0.85134774 1.03265142 -0.31154725 0.376714 -0.888925 -0.260573
0.31491274 -0.17390716 0.07628787 -0.762147 -0.563187 -0.319300
0.53007835 0.26809186 0.36896890 0.589296 0.619689 0.518378
-0.98784912 1.03654003 -0.53314281 0.148633 -0.782199 -0.605040
-0.97753084 1.05528271 -0.55714542 -0.094090 -0.883327 -0.459218
0.40767482 -0.90539646 0.20041315 -0.836263 0.546841 0.040352
0.94904703 1.42067707 -0.15773377 -0.149409 0.674606 0.722900
-0.27878761 1.55060744 -0.22444002 -0.753671 0.652019 0.082773
-0.28425318 1.54796505 -0.23799300 -0.728889 0.684630 -0.001383
0.35277528 1.35497463 -0.23790635 0.800114 0.160623 -0.577943
-0.64653534 1.31817734 -0.06972408 0.103164 0.981875 -0.158993
0.14331017 1.16574991 -0.30491737 0.667300 -0.708123 -0.230807
-0.35923639 -0.01382814 0.02369251 0.635919 -0.406789 -0.655843
-0.36869690 -0.03651568 0.03139998 0.821417 -0.557861 -0.118600
-0.37376374 -0.04256149 0.03684827 0.765976 -0.604391 0.219072
1.15235472 1.44577956 -0.24966292 0.638784 0.756020 0.142787
1.15752637 1.44366086 -0.25879812 0.553417 0.791716 0.258679
1.12794137 1.45466840 -0.20979357 0.215855 0.894256 0.392063
1.11919188 1.45547819 -0.20713563 0.165466 0.830309 0.532173
1.04857171 1.45415640 -0.18126547 0.276423 0.704639 0.653509
-1.09101129 1.44841909 -0.41851863 -0.278931 0.890490 0.359478
-0.29936966 0.26795489 0.53033876 -0.118308 0.118308 0.985904
-0.56569248 -0.99126559 0.51561099 -0.024451 0.359044 0.933000
-0.55595911 -1.00579131 0.52197868 -0.103000 0.230159 0.967687
-0.52443731 -1.01797330 0.51876485 0.364410 -0.395690 0.842992
1.02904189 1.51475859 -0.28941640 0.082194 0.922994 0.375935
-1.24363768 1.21756589 -0.54456884 -0.999681 -0.025067 -0.003008
-1.24205911 1.23433936 -0.55166739 -0.993695 0.111859 -0.007602
-1.24311638 1.22198534 -0.54043424 -0.999513 0.001007 -0.031203
-1.24087989 1.24723983 -0.55260813 -0.998031 0.011496 -0.061658
0.13437775 0.53579867 -0.05702454 0.822653 -0.105915 -0.558591
0.59891033 -0.42878515 0.07911752 0.590193 -0.253389 -0.766464
-0.85137355 1.40131152 -0.51261604 0.767845 0.640563 0.009685
-0.83858323 1.38470733 -0.48165101 0.657648 0.748056 -0.088950
1.06471574 1.03819096 -0.31893459 0.603401 -0.793494 -0.079205
1.06120205 1.03492808 -0.31790522 0.591296 -0.806312 -0.015161
0.82761806 1.27652323 -0.09845544 -0.731054 0.650343 0.206433
0.83365840 1.28583980 -0.09493031 -0.854311 0.500904 0.138734
-1.09744680 1.29848135 -0.89766592 0.601634 -0.758719 -0.249765
0.47573087 -0.32857418 0.42413449 0.072087 0.962429 0.261791
0.41968107 -0.01047386 0.47583795 0.165111 -0.516157 0.840429
0.45952982 -0.28086749 0.40100777 0.028176 -0.042786 0.998687
-0.07360981 1.05573249 -0.57413572 -0.233391 -0.731502 0.640651
-0.06809077 1.05049109 -0.57969266 -0.155363 -0.761729 0.628992
0.58132005 0.26251763 0.20890762 0.686332 0.726120 0.041208
0.40665516 -0.66914260 0.18941495 0.089094 -0.336431 -0.937484
0.42643863 -0.63925987 0.17969376 0.341972 -0.439679 -0.830504
0.43863401 -0.62322968 0.17388982 -0.153611 -0.478388 -0.864609
1.01684654 1.57391429 -0.58316422 -0.996124 -0.081294 0.033602
0.35865423 -0.77372241 0.27491209 -0.595439 -0.605560 -0.527967
-0.66002238 -0.11311084 -0.05184125 -0.070549 -0.286043 -0.955616
0.79154515 1.22278011 0.11439729 0.500521 0.764640 0.405960
-0.74395984 -0.12589207 -0.04577404 -0.137305 0.547742 -0.825304
1.24857521 1.48329449 -0.58017278 0.989105 0.070899 -0.129014
-0.66501421 -0.86054397 0.43981090 -0.322121 -0.117258 0.939409
-1.15688777 1.46030700 -0.51427513 -0.474092 0.876860 0.079715
0.34664121 0.51905519 0.20567212 0.916146 0.183229 -0.356516
-0.80466783 -0.51964003 0.38033020 -0.806665 0.001365 0.591008
0.34467226 0.03639006 0.48178068 -0.323375 -0.381613 0.865910
0.38410687 -0.00776905 0.48029304 -0.061322 -0.611797 0.788634
0.38042149 -0.00092777 0.48494729 -0.104314 -0.501566 0.858807
0.21116258 0.05176120 0.04672887 -0.624984 -0.332784 -0.706151
0.53193831 0.20137216 0.43874180 0.440294 0.476303 0.761102
0.50655574 0.20613161 0.44670689 0.406974 0.511578 0.756743
0.44176754 -0.33113107 0.42997271 -0.076025 0.891562 0.446472
0.39018756 1.02351069 -0.19564544 0.757414 0.120060 -0.641801
0.14201954 1.64540970 -0.21750501 0.668078 0.743710 -0.023810
0.07808696 0.12294849 0.08756146 -0.293751 -0.688630 -0.662947
-0.82751209 1.29607737 -0.02979195 -0.418275 0.773075 0.476866
-0.83912891 1.29958951 -0.04887417 -0.411457 0.849310 0.330719
-0.83107865 1.30053771 -0.04137477 -0.405534 0.840818 0.358561
-0.84830320 1.30822361 -0.08888932 0.001287 0.915238 0.402911
-0.85246193 1.32395768 -0.11157009 -0.060613 0.835902 0.545521
-1.09592414 1.23145986 -0.87296861 0.943599 -0.257596 -0.208005
-1.10085952 1.21506870 -0.87083590 0.926548 -0.367123 -0.082031
-0.77933937 -0.86916786 0.13079807 0.008115 0.979646 -0.200567
-0.27646205 1.55051839 -0.25479364 -0.742612 0.637189 -0.206195
0.86138272 1.35569918 -0.14273304 -0.632783 0.682091 0.366521
0.85501903 1.34906721 -0.14033714 -0.703840 0.629067 0.329976
0.80643910 1.22639382 -0.28762531 0.384184 0.494414 -0.779716
-0.72676289 0.99355316 -0.25461686 0.190312 -0.502004 -0.843667
-0.73660433 1.00397336 -0.26296332 0.361183 -0.392454 -0.845888
-0.03888272 0.20423067 -0.03404254 0.076808 -0.647794 -0.757934
-1.01011491 1.00496566 -0.39461976 0.071307 -0.980164 -0.184914
-0.85622281 1.28443706 -0.04450927 -0.467493 0.614946 0.635053
-0.49719232 0.31289038 0.09838631 -0.253882 0.802143 -0.540473
-0.23615766 1.57093680 -0.37426290 -0.927659 0.237242 -0.288384
0.64045888 -0.63289988 0.36694905 0.763837 -0.291821 -0.575668
-0.34785467 0.96679986 -0.28728977 -0.483092 -0.068218 -0.872908
-0.38890508 0.96262658 -0.26624915 -0.393361 -0.225409 -0.891324
1.21265221 1.24087489 -0.41601363 0.914425 -0.305774 -0.265198
1.21118236 1.24583364 -0.42671436 0.931697 -0.269220 -0.243848
1.20841897 1.25559902 -0.45715854 0.885728 -0.344366 -0.311283
1.20850992 1.24392068 -0.43883693 0.943427 -0.246531 -0.221740
-1.18368852 1.51222026 -0.83449912 -0.228924 0.972623 0.039971
0.63533115 -0.07576494 0.33230430 0.877485 -0.174325 0.446800
-0.52614415 0.29741910 0.44888437 -0.325940 0.614584 0.718366
-0.52276301 0.29894277 0.44877645 -0.272746 0.645977 0.712968
-0.33389202 1.81237459 -0.51654464 -0.182073 -0.748183 -0.638021
0.44147089 1.22110760 -0.17548092 0.914231 0.150728 -0.376116
0.43072847 1.24648118 -0.18613836 0.810732 0.226143 -0.539975
-0.68782282 -0.47519740 0.02523373 0.061269 -0.431608 -0.899978
0.31497923 1.80707502 -0.57371497 0.761378 -0.612514 0.212441
0.39380610 0.95389915 -0.18696833 0.869360 -0.074197 -0.488578
-0.77297264 -0.62181741 0.13678145 -0.714159 -0.343252 -0.610045
-0.54566437 -0.50992340 0.04409215 0.294552 -0.234788 -0.926344
-0.97840005 0.99626076 -0.35459620 0.186429 -0.982468 0.001144
1.23657668 1.33325899 -0.32075769 0.979553 0.197806 -0.036718
0.82671362 1.02572453 -0.29568887 -0.526243 -0.843431 0.108132
0.83408368 1.01860571 -0.28758809 -0.609934 -0.791075 -0.046700
0.52058750 1.36333978 0.07499740 0.843048 0.534445 0.060318
0.83220440 1.14566958 -0.35720387 -0.046986 0.719024 -0.693395
0.90570915 1.30234575 -0.37284470 -0.657912 0.067663 -0.750049
0.87949538 1.22373152 -0.35750353 -0.893327 0.096162 -0.438998
0.86481327 1.16213453 -0.33861417 -0.418730 0.557755 -0.716641
0.86929590 1.16629517 -0.33739370 -0.583859 0.411844 -0.699638
-0.36163142 1.25052226 -0.25737724 0.508513 -0.666270 -0.545435
-0.34571281 1.26583207 -0.26188934 0.427241 -0.673279 -0.603457
-0.33522764 1.28094995 -0.27163395 0.390384 -0.700056 -0.597931
0.21375982 1.41850126 -0.48740637 0.744371 0.243927 -0.621620
-1.04783976 1.40662110 -0.86549246 0.868370 -0.422819 -0.259147
-1.04926610 1.39492834 -0.85060072 0.751094 -0.549065 -0.366586
0.58357167 0.06575883 0.41089582 0.704992 -0.044151 0.707840
0.59818119 0.05045273 0.39322782 0.728872 -0.038213 0.683583
0.65338349 -0.00957345 0.31787726 0.719285 -0.216878 0.659995
0.66266203 -0.02377947 0.30222365 0.801987 -0.131935 0.582589
0.07885882 1.33539689 -0.67259693 0.932937 0.056422 -0.355592
0.08019165 1.31922853 -0.69370216 0.857647 0.381692 -0.344604
0.07545274 1.34980452 -0.68106753 0.813521 0.249480 -0.525302
0.07431159 1.32210171 -0.69978970 0.669089 0.448840 -0.592336
0.07486032 1.33643150 -0.68877721 0.767104 0.332894 -0.548391
0.07655729 1.31835997 -0.70024472 0.589761 0.492308 -0.640168
0.17267294 1.21141219 -0.68576956 0.987550 0.114721 -0.107625
0.17211470 1.20534408 -0.69545466 0.980239 0.066151 -0.186426
0.17111640 1.22331619 -0.67879689 0.982682 0.160364 -0.092842
-0.30085614 1.44431710 -0.38115114 -0.965469 0.230118 -0.122130
0.43317437 1.01650119 -0.14043024 0.621512 -0.171714 -0.764354
0.70379138 -1.04125857 0.29802021 0.359910 -0.876237 0.320426
-1.19245350 1.18617964 -0.63807362 -0.567146 -0.584076 -0.580690
1.21708357 1.21663809 -0.34340915 0.750128 -0.629489 -0.202612
0.42674151 -0.55147439 0.12788139 -0.178394 -0.212751 -0.960683
0.43761951 -0.54810363 0.12364952 -0.222044 -0.430677 -0.874765
0.61906725 -0.24112636 0.27000520 0.905587 0.244318 0.346727
0.70640379 -0.05993120 0.18014759 0.998948 -0.028008 0.036307
-0.00714743 1.08620679 -0.74478412 -0.090714 -0.924742 -0.369626
-0.02045353 1.08664227 -0.74150407 -0.189843 -0.938128 -0.289614
0.32619339 1.37518799 -0.26165682 0.794085 0.462276 -0.394626
0.42370260 1.31465435 -0.16704251 0.704238 0.471157 -0.531092
0.41515905 1.09819329 -0.16313854 0.713802 -0.029566 -0.699723
-1.24122024 1.26054871 -0.55740166 -0.979152 -0.101969 -0.175682
-0.60177195 1.05529463 -0.21523039 0.425578 -0.343917 -0.837021
0.64452320 1.20712197 -0.12771751 -0.152669 0.724042 -0.672648
-1.21621430 1.43124151 -0.85215336 -0.960902 -0.224780 -0.161684
0.08696884 1.07968497 -0.78434181 0.272812 -0.846180 -0.457770
-1.10142660 1.14141440 -0.24134922 -0.646896 -0.165910 0.744311
0.65143365 1.28319597 0.01820516 0.109982 0.961375 -0.252312
0.43733394 0.86272079 -0.04360418 0.963404 -0.218302 -0.155556
0.41110831 -0.43485811 0.08170783 -0.209774 0.039557 -0.976949
-0.91716361 1.10533404 -0.48931736 0.740809 -0.172601 -0.649162
-0.92966402 1.10210907 -0.50446153 0.838283 0.072339 -0.540416
-0.92789304 1.09482086 -0.50647718 0.810916 0.382266 -0.443045
-0.93652695 1.09430742 -0.53136820 0.781106 0.586216 -0.214998
-0.93787235 1.09634602 -0.52796602 0.784038 0.575996 -0.231330
-0.94045866 1.09297192 -0.55468911 0.833455 0.495775 -0.244050
-0.12043349 1.14489508 -0.51948184 -0.831009 -0.523339 0.188523
-0.08691269 0.26412410 -0.06540526 -0.274378 0.324265 -0.905301
0.77221686 1.25379908 -0.26976514 -0.816586 0.196163 -0.542870
0.77149928 1.25224364 -0.26942986 -0.832305 0.207697 -0.513937
-0.43985897 0.28510907 0.03952826 -0.377623 0.474037 -0.795418
-0.52219784 -0.19399486 0.03254435 0.585638 -0.514754 -0.626144
-0.30208230 0.65951365 -0.05133355 -0.468670 -0.501791 -0.727018
-0.65109962 1.00716257 -0.21767470 0.593128 0.119214 -0.796233
-0.91674846 1.35840309 -0.56846887 0.645917 -0.432280 -0.629226
-0.90313506 1.30736315 -0.13355640 -0.689297 0.692409 -0.213168
-0.90095460 1.31377876 -0.12479313 -0.591673 0.777054 -0.214733
0.09750332 1.12744749 -0.72252685 0.481617 -0.736494 0.474997
1.20327961 1.22239494 -0.44124091 0.883392 -0.281421 -0.374727
1.24349511 1.48722661 -0.67093080 0.541843 0.818077 -0.192757
1.23965895 1.49047065 -0.66343158 0.424156 0.897633 -0.119778
-0.33306760 0.69646573 -0.09861053 -0.532050 -0.801998 -0.271518
0.67325783 -0.29085946 0.02106857 0.905147 -0.030570 -0.423997
-0.63533092 -0.12865449 0.37792751 -0.448446 -0.561808 0.695175
-0.27584538 0.10894980 0.48675478 0.358279 -0.463374 0.810506
-0.26449648 0.09864709 0.47537690 0.412864 -0.461436 0.785251
-0.34055287 0.22473139 0.52403969 -0.060024 0.060024 0.996391
-0.35419932 0.24636564 0.51911855 -0.204421 0.165360 0.964815
0.13385694 1.14897215 -0.83778203 0.876074 -0.443190 -0.189939
-0.13257736 0.42649850 -0.09393775 -0.584677 0.187768 -0.789237
-0.24480282 0.03251582 0.16293681 0.772895 -0.496280 -0.395397
0.81199265 0.99972576 -0.22874948 -0.488674 -0.508687 -0.708827
0.83213842 1.02155578 -0.29320583 -0.671075 -0.728124 -0.139620
0.83133489 1.02376902 -0.26365837 -0.670449 -0.647500 -0.362272
0.82866561 1.02664173 -0.28769299 -0.501391 -0.851335 0.154387
0.31117094 0.56508559 0.12833899 0.961735 -0.098870 -0.255521
0.31250900 0.55369908 0.13609236 0.902478 -0.072362 -0.424615
-1.11288857 1.47587264 -0.52363288 -0.414783 0.901274 0.125138
0.47641659 0.84752095 0.18363440 0.893490 -0.423081 -0.150588
0.44414720 0.80882013 0.20203489 0.613807 -0.789180 -0.020878
0.42483291 0.78706485 0.21125759 0.786669 -0.588092 -0.187884
0.36389098 0.69710016 0.28805289 0.992406 -0.103210 0.066917
0.50407374 -0.15573411 -0.04521133 -0.108252 -0.018589 -0.993950
0.50684428 -0.16048929 -0.04524463 -0.085267 -0.087541 -0.992505
0.15011817 1.64098871 -0.48244268 -0.899068 0.152942 -0.410227
-0.28330478 1.36383569 -0.43850026 -0.936147 -0.026967 -0.350574
0.45161232 -0.42258221 0.51139641 -0.160591 0.496507 0.853048
-0.30355895 1.03918529 -0.28554675 0.001110 0.147635 -0.989041
0.31664923 -0.17639115 0.36488658 -0.613565 -0.532433 0.583141
-0.05328054 0.29566324 -0.07717449 -0.080095 -0.706290 -0.703377
-0.43543258 0.45711878 0.16200267 -0.389655 0.918184 -0.071459
0.46064246 0.96545684 -0.10322093 0.152872 -0.470263 -0.869185
0.20447434 1.30009866 -0.27600214 0.911524 0.156867 -0.380155
1.16984391 1.60990036 -0.48035893 0.646218 0.602577 0.468298
0.30213770 -0.81977975 0.41780096 -0.957499 -0.256121 -0.132658
0.45074373 -0.53388065 0.10649829 -0.277924 -0.598727 -0.751188
-0.56176221 1.18936169 -0.17777234 0.097731 0.153233 -0.983345
-0.23231484 1.72849798 -0.60587835 -0.517576 -0.645705 -0.561409
0.24869801 1.34829068 -0.34880862 0.594486 -0.634904 0.493440
-0.60599422 -0.88391215 0.46115085 -0.091280 0.470445 0.877696
0.12803756 0.07000255 0.40292850 -0.446321 -0.749358 0.489142
-0.16102962 1.23961484 -0.44527853 -0.641309 -0.742811 0.192239
0.53740454 0.29365575 0.16288918 0.660470 0.593587 -0.459821
0.53317595 0.30785185 0.17236352 0.708428 0.562429 -0.426384
-0.67143714 -0.72256052 0.45784107 -0.280022 -0.013451 0.959899
0.44229907 -0.77795720 0.61374056 0.244549 -0.298893 0.922420
-0.22453073 0.50492364 -0.03350373 -0.628766 0.107494 -0.770128
-0.81671852 -0.43932703 0.08037839 -0.541481 -0.491188 -0.682299
0.14046746 0.51019382 -0.04730970 0.782458 -0.043863 -0.621156
0.13786097 0.52508086 -0.05102715 0.795993 -0.052499 -0.603025
-0.54016435 1.37971079 0.00605819 -0.863952 0.104245 -0.492667
-0.81720287 1.04700434 -0.31389749 0.270515 -0.471468 -0.839368
-0.57926005 -0.07485316 -0.04672197 -0.046003 -0.108837 -0.992995
-0.58228660 -0.08121813 -0.04544951 -0.076759 -0.147614 -0.986062
-0.29471311 1.70919633 -0.46087691 0.132482 -0.605846 -0.784474
0.14688748 1.53586185 -0.54377633 0.230876 0.676921 -0.698909
0.12259895 1.51851189 -0.56626356 0.362917 0.465237 -0.807370
0.45828256 1.21028841 -0.13093373 0.869293 0.006697 -0.494251
-1.19426668 1.49616861 -0.80425084 -0.456874 0.884227 0.096998
0.25090083 1.43539619 -0.41239610 0.946890 0.306850 -0.096138
-0.71549839 -0.74009591 0.43990600 -0.568504 -0.183437 0.801969
0.25679070 -0.67747754 0.39096084 -0.996569 -0.074662 -0.035708
-0.34754202 1.77245021 -0.48806137 -0.014032 -0.360994 -0.932462
0.17469935 1.41873658 -0.56016719 0.876058 -0.451923 -0.168191
0.17943338 1.42144585 -0.54172796 0.711237 -0.702918 -0.006932
0.54563755 -0.59845525 0.54365635 0.345472 0.001256 0.938428
-0.28258654 0.51007527 0.02171023 -0.464984 -0.293920 -0.835105
0.53098255 1.33957100 0.04551349 0.579595 0.572835 -0.579595
0.13110346 1.16756439 -0.58154517 0.673435 0.146137 -0.724658
0.20421658 -0.05159523 0.32145339 -0.457034 -0.764999 0.453758
-0.48595899 -0.82581264 0.28877625 0.642859 -0.753749 -0.136364
0.42961198 0.86967331 -0.08057063 0.947901 -0.177647 -0.264436
-0.64844096 0.19501029 0.05425624 -0.536018 0.660361 -0.525936
0.67355853 -0.04057216 0.28353566 0.893849 0.055781 0.444884
0.04685675 0.40214050 0.62055773 0.041757 -0.003055 0.999123
0.09182540 0.38997740 0.61325443 0.224863 -0.266763 0.937163
0.61137170 -0.67850226 0.30012158 0.942412 -0.333586 0.024099
0.49640292 -0.35477000 0.45076412 0.336517 0.700670 0.629140
-0.49949831 -0.64402509 0.40704778 0.708066 0.073847 0.702274
-0.47637999 -0.72754955 0.36221787 0.915358 -0.022262 0.402024
-0.47656798 -0.70470321 0.37437764 0.873617 -0.209847 0.439041
0.42255282 1.36611485 -0.06502184 0.327293 0.942760 -0.063894
0.43645957 1.36554420 -0.03233752 0.469656 0.860291 -0.198299
-0.61629522 0.95472658 -0.15398306 0.393087 -0.852983 -0.343369
-0.61690432 0.96818119 -0.17798115 0.419240 -0.694315 -0.584948
0.24568574 1.50444043 -0.35008740 0.885362 0.458615 -0.076205
0.23756489 1.51803005 -0.38717982 0.997475 0.064937 0.028743
0.23849910 1.50967336 -0.38587701 0.957260 0.287551 -0.031120
-1.07390177 1.22752941 -0.21049452 -0.580214 0.157422 0.799106
-1.07548690 1.21851981 -0.20895587 -0.546932 0.209887 0.810440
-1.05969000 1.19994605 -0.19406526 -0.403775 0.121552 0.906747
-1.03999794 1.17336702 -0.18517795 -0.606190 -0.052527 0.793584
0.55334818 0.21590258 0.39686203 0.464710 0.753717 0.464710
0.28930628 -0.44421291 0.19908702 -0.782308 0.214479 -0.584802
-0.02758721 0.41375440 0.61998802 -0.005846 -0.216308 0.976308
0.41612315 -0.45544919 0.51572287 -0.262825 0.366766 0.892416
0.41269633 -0.44861764 0.51057994 -0.263601 0.399167 0.878168
0.40515161 -0.43121868 0.50130290 -0.271964 0.358161 0.893172
0.37724197 -0.43078950 0.49464354 -0.335378 0.487967 0.805860
0.38312081 -0.42821935 0.49562591 -0.272143 0.499187 0.822648
0.35412347 -0.41873121 0.46953195 -0.492619 0.617035 0.613672
0.36395216 -0.41364470 0.47117206 -0.488964 0.630108 0.603223
0.35003179 -0.40797123 0.45236647 -0.456686 0.674155 0.580476
-0.22036552 1.78590584 -0.60103524 0.287432 0.092343 -0.953339
0.28403801 1.81363750 -0.57076067 -0.606365 0.471990 -0.639958
0.23889200 1.78938460 -0.54979241 -0.600325 0.420726 -0.680147
0.36878574 1.38151932 -0.16607650 0.553823 0.644724 -0.526889
0.37876558 1.36635363 -0.18374215 0.595093 0.787934 -0.158189
0.37606764 1.36992073 -0.17580599 0.584802 0.782308 -0.214479
0.10146875 1.68128669 -0.26303232 0.514800 0.855209 -0.059990
0.10975254 1.67546427 -0.26196155 0.549828 0.835025 0.020567
-0.86595351 1.29595470 -0.05929679 -0.175615 0.755907 0.630686
-0.87663502 1.30819571 -0.08037809 0.032965 0.913804 0.404816
0.49110165 0.86836404 0.11779437 0.698068 -0.712521 -0.070818
0.49636808 0.87445098 0.11921081 0.648152 -0.751975 -0.120138
0.58628964 -0.60903925 0.16423368 0.686800 -0.563143 -0.459538
0.59043932 -0.60057735 0.16090173 0.766337 -0.459148 -0.449345
0.30152351 1.34603262 -0.28029507 -0.170819 -0.877453 -0.448216
0.31115606 1.34691334 -0.28355348 0.067857 -0.740647 -0.668459
