-0.07629544 0.27242884 -0.06370798
0.20486560 1.30474520 -0.27304655
0.62042117 -0.35580418 0.35023952
0.60706216 -0.34410879 0.33806741
0.29661411 -0.81419748 0.45244521
0.37653351 -0.14709564 -0.00567554
0.43950048 -0.54504460 0.12048043
-0.52402973 0.87425262 0.11242183
-0.00955796 1.41857231 -0.64462316
-0.54917127 1.17782795 -0.17971022
0.24957713 1.35186589 -0.34536225
-0.80274564 -0.33215970 0.03667529
-0.61442482 -0.88072342 0.45882919
-0.61082327 -0.88362503 0.46038473
-0.48697492 0.43366301 0.25608343
0.13169196 0.07907160 0.41859591
0.59829414 -0.89439929 0.33782461
-0.67695701 -0.71084476 0.45627317
-0.67884517 -0.71965224 0.45505765
0.43865833 -0.77878147 0.61439627
-0.44118044 1.07723224 -0.21620338
-0.45022193 1.08420396 -0.21681735
-0.23718768 0.48720649 -0.02586626
0.13813570 0.50264144 -0.04932301
-0.54460824 1.37008393 0.01140641
-0.53502339 1.41406214 0.00044133
0.12874533 1.52822745 -0.55902845
0.13276604 1.54010916 -0.54653227
-0.65400982 -0.91926801 0.10819744
-0.72273487 -0.73488921 0.43550497
0.25708318 -0.67689037 0.38493836
0.25677273 -0.67851114 0.39066830
-0.86053115 -0.87203145 0.24509555
0.17508984 1.41933811 -0.56013358
0.54609823 -0.60543704 0.54371625
0.53298354 1.33756459 0.04555976
0.10147344 1.06065929 -0.26092336
0.65739477 -0.29059646 0.17939478
0.10096632 1.13266397 -0.60805082
0.12587099 1.15873456 -0.58991319
-0.70068437 0.16090636 0.05343149
-0.70299172 0.15847220 0.05855251
0.06041809 1.28690767 -0.76899666
0.25146210 -0.55752504 0.25739139
0.43056020 0.87232107 -0.07873218
0.67054766 -0.04192148 0.28934836
0.51785612 -0.37106195 0.47029009
0.50558281 -0.36317649 0.45685557
0.49624360 -0.35548785 0.45155716
-0.50799119 -0.62905425 0.41390046
-0.49371880 -0.65538037 0.40249363
-0.48999324 -0.65303695 0.39811555
-0.47579765 -0.73241425 0.36277938
-0.47714779 -0.72282261 0.36599991
-0.47750691 -0.72047108 0.36783284
-0.47938606 -0.69814003 0.38358346
0.43255329 1.36342323 -0.05336465
-0.61604130 0.95682538 -0.15892015
-0.61688244 0.96651655 -0.17621659
0.24850348 1.52578306 -0.23251528
-1.07761383 1.23027205 -0.21345244
-1.05993736 1.19429576 -0.19345409
-1.04804850 1.18155968 -0.18949908
0.54387194 0.21929017 0.39853072
0.86314732 0.96005088 -0.12699716
-0.01679158 0.41071618 0.61947054
-0.03100294 0.41348514 0.61989778
-0.31995356 1.29953253 -0.28899631
-0.31970555 1.30194128 -0.29390642
0.41686609 -0.45323589 0.51482409
0.41442332 -0.44784755 0.51096815
0.40732569 -0.44307029 0.50665945
0.35911226 -0.42176685 0.47663432
0.37217763 -0.42346597 0.48694432
0.35157171 -0.41573983 0.46382940
0.33994687 -0.39965719 0.43679214
-0.22188140 1.79045546 -0.60090053
-1.01599205 1.52831995 -0.73016763
0.27105814 -0.62423819 0.25926691
0.26334220 1.79934037 -0.56215763
0.25355601 1.79480517 -0.55795884
0.38224947 1.38446999 -0.14423910
0.39544111 1.35270154 -0.18241099
0.39180094 1.35673058 -0.17970343
-0.63416386 -0.41772547 0.02089197
0.10814214 1.67638671 -0.25164229
-0.56784326 0.31215629 0.14162013
-0.57206166 0.30731019 0.13543610
-0.86823690 1.30131543 -0.06521436
-0.86774123 1.30143201 -0.06531292
-0.87658423 1.30683291 -0.07702593
0.05019651 1.06667840 -0.28585258
0.05601498 1.08945858 -0.29427716
0.58597791 -0.60848051 0.16306768
0.59296316 -0.60052091 0.16565403
0.58915663 -0.60676402 0.16713682
0.30826086 1.34983313 -0.28736502
-0.07350547 1.15899670 -0.89563853
0.33103836 0.09561932 0.50250769
0.34453788 0.10211498 0.50351876
-0.83113295 -0.38085255 0.27346370
0.35962230 1.86458850 -0.42803055
-0.07987027 0.35038182 0.60503870
-0.47160980 0.29561013 0.47387275
-0.45790216 0.27311373 0.48497728
0.40260312 0.95999414 -0.16980709
0.40345058 0.96835035 -0.16974197
-0.65156561 0.17101756 0.02465064
0.48493215 1.30362415 -0.04800819
0.61449230 -0.56280905 0.16472399
0.60060096 -0.57900488 0.16799775
0.98641467 1.03392816 -0.39938241
-0.19915532 1.81595516 -0.54737693
0.66721570 -0.44708636 0.37331086
0.66495973 -0.46099696 0.37502319
-0.96725577 1.43649495 -0.37600100
-0.53714633 -0.53628886 0.05254554
-0.54028571 -0.54333478 0.05432359
-0.61818224 0.94637454 -0.12861478
-0.61256588 0.95602393 -0.15337679
-0.61138040 0.94175839 -0.11217273
-0.04202424 1.09242642 -0.76729220
-0.84756172 -0.39360830 0.20986253
-0.22853194 1.19553363 -0.27442631
-0.24689962 0.09299228 0.46108878
-0.58063352 0.28536603 0.11075176
-0.58437568 0.26545456 0.09195956
-0.59217232 0.24359575 0.05563770
-0.58319539 0.20075299 0.01691778
-0.58259314 0.19399485 0.01108353
-0.58750457 0.18612762 0.01013807
-0.85505295 -0.39827332 0.15719892
0.61095160 -0.57801652 0.48442513
-0.71659058 -0.85861796 0.14776798
0.02646846 0.11414979 0.13129430
-0.35659122 0.27892682 0.01680494
-0.79133636 -0.19775236 0.21420389
0.84123462 1.31851816 -0.14149018
-0.42490336 1.46896732 -0.09080350
-0.42051327 1.46803510 -0.09220960
0.31864598 -0.53882962 0.15836959
0.30086774 -0.55578125 0.17925102
0.30513725 -0.55278140 0.17432177
0.29624182 -0.57733887 0.19271775
0.29262635 -0.59067857 0.20497598
-0.11103528 1.14408100 -0.77938765
-0.13078254 1.15999782 -0.76515442
0.67791986 -0.16981828 0.19908167
-0.75489914 1.01152813 -0.27966601
-0.77879852 1.07184482 -0.31624293
0.19050674 1.63877583 -0.28623500
-0.32732001 -0.08644836 0.19344196
-0.26926306 0.56827563 -0.00174390
-0.26656058 0.57272941 -0.00393942
0.26688558 -0.70738995 0.42509419
0.26521957 -0.70484257 0.41619134
0.25849771 -0.68769538 0.40857762
1.03904974 1.44553697 -0.16775064
0.34389931 0.31879002 0.03889548
1.21182466 1.37845600 -0.27509740
1.21962261 1.37968040 -0.30564210
1.22442997 1.37680173 -0.32301331
-0.44593641 0.39996168 0.09890565
-0.49052045 0.81654078 0.06825972
0.57885993 -0.67494357 0.51597196
-0.24329776 0.25420496 0.55883068
-0.23310189 0.24200279 0.55621928
-0.23571327 0.24079478 0.55243069
-0.81351632 -1.04049313 0.31353179
-0.17772397 1.53813875 -0.55826563
-0.83492732 -0.43320796 0.10422833
-0.83812952 -0.43065605 0.10699080
0.45062974 1.00775218 -0.12728477
1.17908788 1.19010961 -0.44496393
0.43675888 -0.93556482 0.58558464
-0.42184544 0.41236410 0.09140150
0.52198875 0.30986449 0.31263980
0.33724692 1.41521299 -0.13687681
0.33560324 1.41714919 -0.12666576
0.16007447 0.20092288 0.00457748
-0.48833540 0.80837780 0.20760445
0.93141580 0.98328406 -0.26339868
-1.25097644 1.34141147 -0.86425292
0.15660417 0.64680761 -0.11935550
-1.02033687 1.19952202 -0.16424240
-0.43113074 0.76085407 -0.00335305
-0.60077834 0.96289283 -0.15072308
0.59108895 -0.28595755 0.33052474
0.86856085 0.99438173 -0.24143751
0.88498473 0.98957616 -0.28597552
-0.45602220 0.97623640 -0.20287640
-0.25182569 1.07720006 -0.25860700
0.35933638 0.11660004 0.49904761
0.15488578 0.36942768 0.57643855
-0.33758119 0.39314407 0.04381720
1.06006527 1.60357320 -0.65668100
0.49174753 -0.07100026 0.44389915
0.49909583 -0.07348015 0.43736008
-0.84349275 -0.30533493 0.09137274
-0.10399676 1.16767478 -0.87535483
-0.15047178 0.23913431 -0.00888063
0.42602378 0.87625563 -0.09675880
-0.21353567 1.68705750 -0.32904828
-0.20605896 1.66565228 -0.31764305
-0.49988219 -0.15315396 0.38886014
1.12664223 1.65832782 -0.47141394
-0.85551947 1.21723390 -0.46230233
-0.86146903 1.21977413 -0.47405112
0.50547475 -0.84683162 0.54248428
0.50734282 -0.84009308 0.54155308
0.02958708 1.31846929 -0.74268216
0.59006405 0.95565438 -0.11639708
1.11668384 1.52997231 -0.35922667
0.69623011 -0.10560268 0.10033046
0.69416153 -0.13525526 0.09240028
-0.80752003 -0.19151035 -0.04820003
-0.81688112 -0.19098984 -0.04066688
-0.81422627 -0.59100670 0.26246050
-0.81480360 -0.59377229 0.26472509
-0.48163649 0.90726995 -0.08514568
0.52396101 0.29067874 0.33664912
-0.70200688 0.17921998 0.08289060
0.54835182 1.33667445 0.08451321
0.24739170 0.25856027 0.00286023
0.38288450 0.45524475 0.33487651
0.38935792 0.29293603 0.05466891
-0.52019602 1.40803659 -0.02134724
-0.50860775 1.40898442 -0.03452792
-0.50195789 1.40484500 -0.04434814
-0.48329186 1.40774512 -0.06704726
-0.46550083 1.40715969 -0.09612203
-0.46053511 1.41022027 -0.09330035
-0.41944334 1.41516554 -0.14936417
-0.40846971 1.41654384 -0.16075106
1.15479529 1.45965683 -0.36719799
1.14856696 1.45767927 -0.35458419
0.29653141 -0.38793060 0.26721573
-0.05444897 0.13929449 0.25685096
-0.41018438 -0.49670279 0.16741179
1.06567180 1.53753054 -0.64010018
1.06586993 1.53897488 -0.64292842
1.06463480 1.58045197 -0.64649659
-0.06031068 1.29083693 -0.71080536
0.51498455 -0.17955467 0.39331359
0.52398503 -0.18079010 0.38844740
-0.54013973 1.29803884 -0.11426547
0.44159943 0.20939890 0.46671590
-0.49761260 -0.39409140 0.06295367
-0.84893495 1.31318665 -0.47613475
-0.84780675 1.32061374 -0.48694250
-0.20717399 0.35605043 0.57301104
-0.24218826 0.35781649 0.54929781
-0.24630088 0.35550481 0.54560059
0.66621137 -0.18004182 0.07230137
-0.92303777 1.02148128 -0.46954152
0.79135180 1.22498965 0.10986731
0.60971200 -0.35900801 0.39582616
0.60983855 -0.37156615 0.40688235
0.61787027 -0.37750378 0.40613800
0.62190557 -0.38740245 0.41110244
0.27876136 0.18980797 0.01477140
0.27545902 0.17723399 0.01514922
0.28622422 0.20148107 0.01254038
0.28792325 0.21379761 0.01020419
0.28932938 0.21969447 0.00906301
0.43250176 1.21893322 -0.19489820
0.43860403 1.20783150 -0.18759924
0.18421891 0.24251792 -0.01205124
0.18160567 0.23191679 -0.00981933
-0.44851670 -0.66256094 0.21802714
-0.19107468 1.27136886 -0.46192929
-0.55681926 -0.62714505 0.08091110
-0.74640095 -0.90953016 0.41768536
1.22436810 1.56567419 -0.60054809
-0.06091084 0.21745610 -0.05271712
0.09221368 1.52096367 -0.57704985
1.21564519 1.48130679 -0.45380548
1.08926249 1.13174629 -0.46411026
-0.70945525 0.07494054 0.00139811
-0.71099484 0.06640375 -0.00202826
-0.70944601 0.08201886 0.00553569
-0.71326119 0.14235455 0.06191589
-0.16770686 1.70672786 -0.56114888
0.36474434 1.84887660 -0.49893394
-0.53311193 0.16552176 -0.02464678
-0.53626823 0.15874217 -0.02490843
0.61965007 -0.10672234 -0.01679465
-0.10396470 0.69283652 -0.16767050
1.24115610 1.37592363 -0.61635572
0.33789814 0.01059466 0.47589335
0.32804409 0.01863740 0.47223681
0.27158642 0.65628785 -0.06270041
-0.98743325 1.00235677 -0.31284216
-0.81542927 1.08371925 -0.44519711
-0.84801084 -0.35293761 0.08687197
0.83637428 0.98386592 -0.21826340
0.64226860 -0.19230899 0.03992192
-0.58155298 -0.86838394 0.19795576
-0.29858714 0.23822413 0.53000677
-0.16791508 0.39634809 0.60696727
0.04584669 0.43897596 -0.10021697
0.05499508 0.45169494 -0.10089054
0.25492471 1.40244544 -0.41078997
-0.33838198 0.28577253 0.52035952
0.32864681 -0.53713298 0.50334293
0.33159697 -0.53314543 0.50319123
0.31505650 -0.53191072 0.48964527
0.29866877 -0.51901662 0.46788916
0.29069394 -0.50445527 0.44910583
0.26980004 -0.48625368 0.38938197
0.26549721 -0.48395643 0.37138134
0.26827821 -0.48254550 0.38120782
0.39023924 1.19650781 -0.19404356
-0.23210052 0.28447059 0.00244251
0.70331448 -0.08420986 0.17046742
0.27794603 1.46711349 -0.28156123
0.09336838 1.13757539 -0.32516491
-0.00916707 1.24617112 -0.90117967
1.00003111 1.31921220 -0.49896133
-0.25675103 1.25247371 -0.28515297
-0.08748195 1.38578045 -0.68961746
-0.07600786 1.37358332 -0.68037462
-0.09293126 1.72013724 -0.29663122
0.47171083 -0.52112961 0.08892745
0.49158472 -0.50601643 0.07508365
0.50214761 -0.49698466 0.06579874
0.55061609 -0.44386071 0.05047141
-0.25369802 0.11549281 0.47954583
-0.76594305 -0.10626511 -0.03708440
0.56694567 0.27333522 0.23207615
0.47818500 0.33646643 0.16713361
0.28860161 -0.17623007 0.31669885
-0.82414114 1.31339490 -0.09574464
0.48355356 0.85900873 0.12636495
0.38477802 -0.22261898 0.02048873
0.39303815 -0.22552310 0.01484832
-0.10551208 1.63322568 -0.47871277
-1.02895153 1.00771904 -0.36054766
-0.43534133 1.01627696 -0.23516999
-0.43178371 -0.41358551 0.17887436
-0.44263038 -0.38122693 0.19341719
-0.75359207 -0.34990662 0.00174523
0.09493597 0.40238202 -0.06073836
0.25759068 -0.48278135 0.34354794
-0.32633844 1.39131188 -0.32158211
-0.41340497 0.73927933 0.01584608
-0.06058310 0.21388207 -0.04466476
-1.25106978 1.34788561 -0.78634518
0.22061327 -0.00079256 0.39859021
0.23155870 -0.00383603 0.40636992
0.24274571 -0.00879737 0.41251120
0.25932008 -0.00495499 0.42573375
0.28569216 -0.02380897 0.44763017
0.36717483 -0.03740512 0.45980945
0.34984219 -0.03719710 0.46011409
-0.02670375 0.21707828 -0.05695787
-0.02225372 0.21927781 -0.06190463
0.21735084 0.47126004 0.01648282
0.21424282 0.47953874 0.01318622
0.94625175 1.17032444 -0.42685634
0.94008917 1.17029703 -0.41974992
0.94309503 1.17794931 -0.42207304
-1.09619009 1.22730458 -0.22249806
-1.08077312 1.20745242 -0.20956139
-1.07680225 1.19609118 -0.20077525
0.34487888 0.60666561 0.19850601
-1.21221399 1.15777087 -0.56813574
-1.21035159 1.15744841 -0.57773304
-1.21086764 1.16162586 -0.58078641
-0.20863897 1.76549363 -0.59627539
-0.87447542 1.02359247 -0.42417848
-0.87648922 1.02822733 -0.43859935
0.56189758 0.93792874 -0.08729462
-0.52482444 0.39142799 0.27034381
0.28208619 0.22478274 0.51193714
0.25683498 0.16912876 0.51821268
0.77663195 1.14636290 -0.30737343
0.33978465 1.88856411 -0.44433269
0.85889429 0.96306992 -0.17205010
-0.82596225 -0.52626801 0.11484876
-0.82645804 -0.52862924 0.12291037
-0.81429464 -0.50289702 0.10167400
0.45952880 1.05791426 -0.13763413
0.45316386 1.07390535 -0.14068589
-0.40048522 1.78430927 -0.48993468
0.25273761 -0.47777531 0.30157059
0.24608313 -0.49744862 0.32034102
0.24828158 -0.55223542 0.37445930
-1.26077867 1.27549100 -0.50818181
0.37814784 -0.98659909 0.15418796
0.38584822 -0.79104662 0.59799051
0.37345585 0.74204779 0.02621881
-0.27523881 1.63551390 -0.44833800
0.15562475 1.20367622 -0.54869634
-0.50501466 1.39469051 -0.05917082
-0.48744848 1.39785659 -0.09234302
-0.46505678 1.40105200 -0.11140005
-0.44233003 1.40243471 -0.14117485
-0.42593908 1.40444779 -0.16093099
0.15052792 0.21416099 0.53558195
-0.74025989 0.08431990 0.02402305
-0.74438977 0.09314144 0.04331284
0.50673747 0.90305346 0.22752477
0.50324565 0.89731133 0.23550412
-0.56078869 -0.66700333 0.45251212
0.13236369 0.08303264 0.42473906
0.77357942 1.23311806 0.11225727
-0.47383726 -0.78875446 0.26365197
0.24371058 -0.56090301 0.33317608
0.23883161 -0.54206234 0.31197539
0.24777052 -0.48781824 0.25008041
1.02291715 1.01530337 -0.31660414
1.01508331 0.99650568 -0.26925606
1.01970613 1.00120068 -0.27681991
-0.35073391 0.68768829 0.02900998
-0.34162012 0.67688435 0.02968827
-0.34440207 0.64407063 0.03911990
0.36512327 0.52827978 0.23015806
-0.35715654 0.37276179 0.03757561
-0.74855667 -0.90270734 0.02837898
-0.68224567 -0.89488244 0.11277174
0.28189206 -0.18821017 0.17892483
-0.67884082 -0.13363607 0.34567443
0.18106717 1.46160829 -0.53404272
-0.66363955 -0.47928908 0.03392921
-0.83279145 -0.27748215 0.20194513
-0.83317959 -0.26607612 0.18736130
0.96275574 1.44549477 -0.17753145
-0.29046372 0.61481071 -0.01666261
-0.36463106 -0.16302195 0.25657442
0.20748757 1.22431648 -0.24029478
0.07999600 1.54422307 -0.53574413
-0.14814505 1.10641050 -0.28265801
-0.26101705 1.51969934 -0.43210247
0.56209344 -0.02787779 0.41604745
-1.01967478 1.42067528 -0.33276397
0.05562964 1.34879458 -0.69459462
0.34918940 -0.14388430 0.00595715
0.35413191 -0.14221634 0.00149806
0.44384655 0.89716256 -0.04910647
-0.76333666 -0.84131688 0.19710617
-0.59618074 0.95698881 -0.13436987
-0.59610975 0.96418536 -0.14751078
0.84513688 1.28194821 -0.30197886
0.19591659 1.77719212 -0.39560381
0.18706988 1.78365397 -0.42118967
0.18980201 1.78310680 -0.41484144
0.07110824 1.11385047 -0.51192039
-0.67867976 -0.28895041 0.36188084
0.35236165 0.65451902 0.14886919
0.37676120 -0.56498653 0.14811644
0.37206861 -0.56968856 0.15054844
-0.15043311 0.71822208 -0.21271081
0.51145762 -0.12707236 0.41604030
-1.07163239 1.44646263 -0.39318049
0.40844759 -0.39937165 0.48777515
0.41216412 -0.38892773 0.47901514
0.39040637 -0.38194191 0.46652800
-0.24580766 0.22331432 0.52853322
-0.24919526 0.22547548 0.52912086
0.27040941 -0.51978326 0.20481820
0.12785739 0.15565714 0.50293887
0.12935495 0.15203741 0.50159746
0.11518086 0.13883995 0.48149359
0.12931770 0.15001772 0.49923646
0.13731264 0.15555240 0.50383323
0.11450895 0.13054007 0.46874836
0.13255645 0.13253394 0.48022082
0.14237444 0.14120264 0.49086976
0.14790225 0.15707885 0.50389308
0.20571931 0.21887645 0.53526264
-0.56374973 -0.14772181 0.38629135
0.06590290 0.22533137 0.00359727
-0.27863532 1.74404860 -0.48865926
-0.54007208 -0.11549334 -0.02623810
-0.54156744 -0.13493641 -0.02007244
-0.45932853 0.83227992 -0.05419412
-0.50874507 -0.94855237 0.29087415
-0.83001351 -0.37038448 0.28122577
0.50474995 0.32588190 0.26527274
0.16336332 1.28474629 -0.58500504
-0.51205748 0.34482434 0.16115312
-0.52120090 0.32845071 0.41623577
0.24566244 -0.04395346 0.06310388
0.90393460 1.21436656 0.02501860
0.90195084 1.22062635 0.03146782
0.88675541 1.22872376 0.04322889
0.52018398 1.30637956 -0.01940028
0.43971908 -0.62190503 0.17324513
0.16656958 1.74676836 -0.40403193
-0.63487256 0.24675800 0.09758897
-0.80629194 -0.84804356 0.21037534
1.00392032 1.02725077 -0.36787316
0.42402363 -0.03562810 0.46643940
0.94891649 1.43424129 -0.41180918
0.47679731 0.33195037 0.30633846
0.17560436 1.35653162 -0.58245617
0.10317763 1.29256141 -0.65362978
0.45138317 1.33040464 -0.08651647
-0.51822042 1.19349444 -0.18542132
0.27287388 -0.91354024 0.50467849
-1.05497360 1.17131603 -0.19341175
0.35859343 1.40772176 -0.11232517
-0.44541264 -0.16334923 0.35894603
0.46467754 -0.41127902 0.50476807
0.47304368 -0.40914392 0.50487393
-0.32577279 1.51454413 -0.13983691
-0.70977736 -0.12726940 0.32907799
-0.71305585 -0.12207913 0.32749653
0.57728308 0.27145424 0.27540427
0.34750378 -0.96505219 0.27545866
-1.03507459 1.36475301 -0.77083915
-0.63145268 -0.82566351 0.45697126
-0.62820089 -0.83016676 0.45793733
-0.42575052 -0.52544963 0.26489082
0.29421407 0.43727082 0.06398019
0.29905629 0.44185147 0.06918675
0.30867741 0.42111635 0.05756279
0.31572893 0.40301698 0.04434561
0.26078629 -0.53085697 0.22436501
0.25539741 -0.54553437 0.24005067
0.31240940 -0.08953298 0.01600602
-0.71939248 0.05216214 -0.00063657
-0.92641366 -0.91011697 0.22053725
0.63948393 -0.24118307 -0.01531969
0.60583711 -0.70698714 0.31886777
0.91012090 1.05189610 -0.39322370
0.91486394 1.05603504 -0.40707380
0.91430050 1.02275443 -0.36753404
-0.47099289 -1.03305590 0.48732063
-0.48271433 -1.02694786 0.49157000
-0.49649930 -1.01923883 0.50145257
-0.81360728 -0.64868569 0.34561756
-0.81079221 -0.65630901 0.34663126
-0.74033850 -0.78525442 0.39578515
-0.76760077 -0.74274009 0.39958647
-0.78131729 -0.72997469 0.38950905
-0.78610325 -0.71551532 0.38237578
-0.20288259 0.36541733 -0.02686564
0.40816790 -0.88068688 0.58013588
0.89792055 1.13860297 -0.38301861
0.23474604 0.28386495 -0.00066323
0.22199960 0.35079485 -0.01147101
0.22347569 0.32776228 -0.01428440
0.21408927 0.27917972 -0.00817246
0.22348395 0.30417427 -0.01136733
-0.12219197 0.94723415 -0.27500176
-0.19608325 1.31079543 -0.58390850
0.37580252 0.29221392 0.04996129
0.35729742 0.28230301 0.03723329
0.34428245 0.26609880 0.02340158
0.30793691 0.20543598 0.01131381
0.32926708 0.25317267 0.01573739
-0.58303070 -0.45102027 0.02706313
-0.26627955 1.32261479 -0.37907240
-0.27090475 1.32130790 -0.38806233
0.36250383 0.04971775 0.49432796
-0.42158270 -0.16374278 0.33337894
0.31909820 0.67895335 0.07011833
0.53731060 0.30834961 0.17998517
0.27118731 0.37829179 0.49767274
0.63561738 -0.91370392 0.24444230
-0.46101812 0.83758861 -0.05615848
0.16331723 0.21713492 -0.00292546
-0.84685564 -0.46874318 0.14927849
-0.84246242 -0.47994515 0.15690657
-1.03034270 1.35711432 -0.23780577
-0.09803738 1.08264196 -0.28503364
-1.14006948 1.18432713 -0.92302531
0.62403685 -0.13932656 -0.01203890
0.63089114 -0.14167969 -0.00515886
-0.50929999 0.36613923 0.17726143
0.85926950 1.44643819 -0.34051850
-0.43305025 -0.40994632 0.14804521
0.15958063 1.58155739 -0.50446135
-0.79173404 -0.50921273 0.39532426
1.09721172 1.08798540 -0.37942481
0.65002799 -0.35774922 0.23237190
-1.17976534 1.46627629 -0.63924217
0.35788047 -0.20579919 0.37670076
0.35777691 -0.43955168 0.12602124
-0.37215024 0.18600176 0.52290255
-0.42646179 0.31048363 0.48841438
-0.40482917 0.24261391 0.50658309
-1.23954391 1.20938337 -0.76953179
-0.13766910 0.21985662 -0.00551947
-0.13913448 0.21819544 0.00046776
0.53604269 1.01229429 -0.10718533
-0.25504205 0.51373225 -0.00658968
-0.23852620 0.53644991 -0.02142559
-0.23450564 0.52940881 -0.01964657
-0.21548623 0.56960291 -0.05113493
-0.20152380 0.58992606 -0.09021325
-1.03825355 1.17940664 -0.69359607
0.27264890 1.41709137 -0.32005507
-0.65802878 -0.74028498 0.46069053
1.08391380 1.16492331 -0.49667627
0.99008012 1.01755536 -0.34044164
1.00105023 1.02466059 -0.36185879
0.12150355 1.19086754 -0.40053305
-0.73848534 0.11104051 0.06453198
-0.94488275 0.99485087 -0.36734340
-0.70346451 0.12527435 0.02181540
-0.68625158 0.09108528 -0.00021968
-0.25875673 1.90169239 -0.50542825
-0.27346438 1.90977120 -0.52610779
-0.49345905 -0.16571105 0.37687784
0.10813065 0.42727596 -0.04695461
-0.67071432 0.15737768 0.01768442
-0.94823980 1.00090301 -0.35217264
-0.94969082 1.00971806 -0.31252921
0.54192859 0.21813312 0.40366569
-0.40981171 -0.17113777 0.19060262
-0.89927983 1.42239106 -0.60497057
0.18741538 1.52809179 -0.52448034
0.17831300 1.50314367 -0.52820396
0.12906910 1.46014690 -0.58850425
0.49402899 0.88721699 0.04372962
-0.15960614 1.21053338 -0.74209875
0.11563297 1.28495300 -0.64996994
0.56056154 0.90914696 0.15439279
0.40025505 -0.71333551 0.20376243
0.40559179 -0.71212131 0.20331737
0.41400295 -0.69778311 0.20060329
-0.29454318 1.43282473 -0.40886053
-0.28212169 1.46396899 -0.42469066
1.01204312 1.43792033 -0.15732865
-0.70229256 -0.65181202 0.09373154
-0.72293156 -0.68711478 0.12861899
0.78290713 1.15255642 -0.33118373
0.02249361 1.66234338 -0.44664210
0.01962520 1.66136956 -0.45043877
-0.32160291 1.92953956 -0.50390232
-0.56944698 0.32876557 0.17725566
-0.20153449 1.28648448 -0.43491620
-0.20114909 1.28956020 -0.42145222
-0.17976202 0.20099120 0.02181067
0.18126488 0.59078574 -0.07741232
-0.07923196 0.93106252 -0.28153634
0.50255406 0.31947440 0.14113712
0.49401483 0.33035028 0.15311183
-0.96153307 1.10488415 -0.60606432
-0.08433109 0.88466752 -0.28430045
-0.85094184 1.22184551 -0.45114708
-0.13090594 0.35108697 -0.06126115
-0.32420260 1.00758958 -0.29305694
-0.41300651 1.08587909 -0.23088637
-1.24657166 1.29001093 -0.53648651
0.43078524 -1.05131125 0.59660369
0.90648997 1.42381930 -0.37753192
0.91165286 1.43233764 -0.38228613
0.91767746 1.44685304 -0.38781378
0.15353544 0.15675394 0.50459886
0.45600930 -0.09809871 0.43381089
0.40422168 -0.08513810 0.44708627
0.35819012 -0.07033478 0.45331997
1.20997393 1.43856764 -0.44621682
0.09427205 1.12699628 -0.83019555
0.10509723 1.12916565 -0.83281791
-0.57602406 -0.40554273 0.02370164
0.45355412 -0.61093086 0.15785259
0.49493313 -0.58864748 0.12388955
0.56736231 -0.51488119 0.08798342
-0.59421211 -0.17630509 -0.01857343
-0.45193321 0.30202439 0.48083782
-0.44512895 0.28609213 0.48644617
-1.05808544 1.43055570 -0.90030301
-0.02559748 1.55479598 -0.53783113
-0.85531634 -0.39727589 0.17610922
-0.57111567 -0.14886910 0.38044235
-0.28539529 0.11083083 0.49202779
-0.25395718 0.65939182 -0.09613951
-0.08964220 1.45455122 -0.63676393
-0.11400265 1.46099675 -0.61878228
0.02505291 0.39530826 0.61938375
-0.01990055 0.39211172 0.61519879
1.07145262 1.56678355 -0.65326262
1.07409739 1.57593095 -0.65834635
1.07668543 1.56457162 -0.67246240
1.07696319 1.57253289 -0.67691165
-0.77759486 -0.08706101 0.26135167
-1.01153529 1.46050870 -0.75452822
0.36432713 1.27060580 -0.23189348
0.43034032 -0.46455052 0.07471616
-0.71372509 0.23181589 0.24439423
0.21238425 1.61831534 -0.55347335
-1.02532256 1.59555209 -0.80754328
0.39855421 1.77217472 -0.42619497
-0.80850911 -0.70288616 0.30062085
0.29213548 0.45969531 0.07295859
-0.57076424 -0.74497390 0.45656252
0.47088113 0.85411662 0.08996619
0.48106456 0.86781108 0.07974653
0.46024153 0.84188479 0.09813711
0.46811765 0.84900630 0.09696616
-0.05904470 1.71491289 -0.33539635
0.08352106 0.05987198 0.21507680
0.08310791 0.06069442 0.22220665
1.12914038 1.43989515 -0.73216927
-1.11351323 1.25619531 -0.92140830
-0.23799656 0.07038896 0.13065781
0.67955768 -0.03298551 0.25366724
0.68179035 -0.03921695 0.24772522
-0.62608021 0.97247773 -0.18778445
-0.16841730 0.30075952 0.57556361
-1.04327619 1.44733703 -0.38820127
-0.44670501 -0.64976966 0.20035709
-0.45133796 -0.66208327 0.20099603
-0.36837810 0.36328977 0.03432775
-0.88531095 1.37634206 -0.60526907
-0.45555109 1.13393939 -0.23526062
-0.44642788 1.13839602 -0.23771389
-0.77497405 -0.13069944 0.24596871
-0.65482455 0.15647206 0.01394493
0.27052182 1.40337217 -0.33501726
0.27692133 1.39376032 -0.32602689
0.30906746 -0.11627774 0.03413114
0.31104967 -0.10901132 0.02660078
0.68243295 1.01838529 -0.16827659
0.69315982 1.01251733 -0.17111951
-0.89836037 -0.95579231 0.28883359
-0.37706432 0.28649032 0.02142063
0.70184696 -0.11133824 0.15425912
-1.05874169 1.46160674 -0.42010251
0.44594687 0.88445324 -0.02638346
0.96434247 1.19450295 -0.45379111
0.38097662 0.15787871 0.50239992
-1.09218717 1.13399279 -0.23376007
0.50091600 0.97821748 -0.10085507
-0.14208338 1.74604821 -0.39875486
0.73242742 1.07889748 -0.19211277
0.04125901 0.36032113 -0.08270048
-0.56062335 -0.78831387 0.44847459
-0.12517905 1.16758156 -0.82895166
-0.11597820 1.15329969 -0.84524161
-0.77906716 -0.04696611 0.27881750
-0.25465149 1.80030215 -0.60665727
-0.46595284 -0.71896768 0.21268882
0.98919362 1.43270397 -0.15832213
-0.92462039 1.05820274 -0.53364241
-0.08487435 0.74791342 -0.19749875
-0.64021629 0.09059688 -0.03156664
-0.63804382 0.07790373 -0.03570905
-0.63140166 0.07235906 -0.03847455
-0.25572151 -0.06174578 0.25884923
0.13379373 1.15158653 -0.70743412
0.11101694 1.14756167 -0.70925468
0.75366968 1.03827202 -0.20101207
-1.00232458 1.00851858 -0.40784520
0.42035952 -0.12992756 -0.03269312
-0.18266723 0.40881690 -0.03855870
-0.92164266 1.01174569 -0.42854187
-0.92292821 1.01040149 -0.42696977
-0.90887696 1.00165510 -0.39742759
-0.91658926 1.00002623 -0.40198523
-0.40028995 1.32291543 -0.27466470
0.04882708 1.45727336 -0.60199565
-0.62138766 1.27647340 -0.16855346
-0.61389977 1.27426696 -0.16793104
-0.47150698 0.78104854 0.14865801
-0.50001901 0.83392096 0.11839561
-1.24595273 1.30403638 -0.54369909
-0.60676593 -0.47451058 0.02854536
0.98287660 1.47534633 -0.21350190
0.07714713 0.63113588 -0.17515980
-1.21698034 1.34420335 -0.65703779
-1.21923959 1.32383394 -0.65997112
-0.61408883 0.13593955 -0.02012311
0.96894044 1.40989852 -0.14095928
0.97416812 1.51226830 -0.45161951
-0.81207150 -0.96415496 0.35131630
0.34090450 -0.64382613 0.19797777
0.34168473 -0.63170308 0.18997850
0.35222608 -0.61266446 0.16798910
0.34706783 -0.60919112 0.17046055
0.14430174 0.50270283 -0.04249177
-0.28907365 1.80689991 -0.58019048
-0.70523041 -0.18655214 -0.04615756
-0.22621398 1.26840198 -0.48444948
-0.23717576 1.27663445 -0.52934265
-1.07855368 1.34893227 -0.89992988
-1.08698463 1.36720908 -0.88786709
-1.00534785 1.38779020 -0.70725077
0.34677276 -0.60172069 0.16537499
-0.54328537 -0.80365187 0.18163112
-0.53487527 -0.78324246 0.17823644
-0.30633450 0.06103101 0.47891942
-0.31982157 0.08642719 0.49532270
-0.69342065 1.32535362 -0.07870274
0.81637478 1.23322451 -0.28050801
-0.46232572 0.78113890 0.04094748
0.13793354 1.16122365 -0.53196526
0.16297387 1.65776944 -0.26653355
0.16051637 1.66161335 -0.27148095
-0.59126627 0.16683584 0.00041477
-0.13844465 1.73988295 -0.45715263
-0.13985591 1.74229133 -0.46210897
-0.48353443 0.37779129 0.13565291
0.10959011 0.51961339 -0.10647424
-0.43024245 0.31233302 0.48603806
0.38312802 1.90053308 -0.45822340
0.77008331 1.27572227 -0.26217362
0.47962174 -0.84217185 0.26439193
1.01769614 1.14594722 -0.50032693
-0.70560092 -0.77182782 0.13329887
-0.50788009 0.92644238 -0.07662405
1.01514959 1.26960623 -0.55631042
-0.77578807 0.10183807 0.20898759
1.19836426 1.40928912 -0.26797408
0.48792320 0.90435207 -0.01197472
-1.15891778 1.09715235 -0.53373718
-1.15518022 1.09871387 -0.54301375
0.46883819 0.90583670 -0.03229667
0.46231318 0.88249654 -0.00589581
0.46356645 0.89829808 -0.02690239
0.58378810 1.20057523 -0.11354774
0.59804833 1.18894112 -0.12611128
0.56889224 -0.38441330 0.01581005
-1.18345141 1.19276404 -0.66044801
0.60705602 -0.65516889 0.48502117
0.60476017 -0.66593099 0.48807442
0.34644893 0.46409857 0.40967280
-0.24176753 1.88574898 -0.52595282
0.39253387 -0.03140313 0.46286547
-0.98131818 1.00817502 -0.30060810
0.60069549 -0.79121888 0.41396692
0.50688165 -0.99866563 0.51819396
1.03926563 1.03892660 -0.36875623
1.07338285 1.54607582 -0.67610598
0.00513599 1.53086579 -0.56120938
0.01127412 1.54122424 -0.54248577
-0.83281982 -0.49117625 0.13797161
0.98952907 0.99644923 -0.19672035
0.99234009 1.00051284 -0.21395133
-0.83165866 1.32727158 -0.11838501
0.57687700 -0.40685287 0.04806275
-0.32556254 1.23635662 -0.24325654
-0.31245726 1.23263633 -0.24688640
-0.21485113 0.56188118 -0.04756538
-0.27245519 0.45217657 -0.00800910
-0.25289243 0.47612604 -0.01533487
-0.80895597 0.00993996 0.17721257
-0.11112328 1.53021038 -0.58687145
-0.11647033 1.52259552 -0.58933091
1.14839530 1.25119460 -0.52047104
-0.16939425 1.36722291 -0.59549695
-1.09485650 1.10387945 -0.64415246
-1.09305978 1.11501050 -0.66083968
-1.09576118 1.11725378 -0.66244352
0.45415047 1.29798985 -0.13401575
-0.59852052 -0.13930374 0.38471147
0.17473385 1.36076629 -0.55277687
-0.48687810 -0.82886130 0.36244226
0.74284357 1.25136292 0.10772538
0.29678124 0.64224637 0.03284764
-0.15739439 1.10404170 -0.28174853
0.64754343 -0.21166110 0.19352490
-0.84221143 1.39792228 -0.43633389
-0.43423584 -0.60226238 0.29605964
-0.34121019 0.51625180 0.08973639
-0.02623362 0.67153424 -0.19297199
1.24717391 1.38372970 -0.54533237
-0.25307122 0.59818774 -0.04213838
-0.07310084 1.67995179 -0.43820208
0.82609099 1.08993351 -0.36960733
0.35213181 -0.16393051 0.01971763
0.35067445 -0.16685708 0.02492234
0.35304153 -0.19246522 0.03959523
-0.77879947 1.31689465 -0.34422410
-0.61830425 0.13157660 -0.02160564
-0.60658175 0.10344217 -0.03483762
-0.60623854 0.06641249 -0.03969163
-0.58873075 -0.02917751 -0.04939188
-0.10294744 1.07926536 -0.57331115
0.44711903 -0.83682483 0.28551921
0.35044041 -1.00101233 0.63860255
-0.82040739 1.30254722 -0.25968868
0.06759846 1.01780796 -0.24757908
-0.48984218 -0.14404309 0.01088814
0.57458979 0.02986107 0.41449389
0.60147941 0.00564770 0.39213669
0.61747742 -0.00757394 0.37649676
-0.66306013 -0.12144404 0.36359596
0.08772856 0.09513406 0.11260221
-1.11138582 1.19429576 -0.83305269
0.58898306 -0.72465366 0.50487971
-0.14853238 1.39212525 -0.64830655
-0.14194429 1.37986577 -0.65905994
-0.13616776 1.37525916 -0.66315097
-0.09164200 1.34781682 -0.66574091
-0.07929192 1.33926761 -0.66780686
-0.31639442 1.74009180 -0.47832683
0.10409981 1.60962880 -0.48716897
0.10930973 1.61166823 -0.47777164
-0.80810982 -0.64103413 0.36658671
-0.79759884 -0.66292465 0.37918028
-0.17347960 1.71744394 -0.56755209
0.16118568 1.18490458 -0.72622240
0.09693267 1.35099375 -0.66428930
1.03401244 1.61181557 -0.63913649
-0.35181990 1.92581701 -0.60131091
-0.35131687 1.91307127 -0.61044949
-0.69872296 -0.50066686 0.03650203
-0.72821641 -0.55277026 0.06110449
-0.72093904 -0.52888501 0.04984885
-0.71276385 -0.52469963 0.04794119
-0.14864907 0.39384022 0.61190116
-0.15736546 0.39231598 0.60879242
0.57502389 0.93347394 -0.09202321
-0.20428567 1.29631591 -0.39676824
-0.15973306 1.22338402 -0.46969673
-1.11756063 1.52694845 -0.66585881
-0.67226791 0.14261910 0.01162633
-0.66475093 0.11782327 -0.00194192
-0.66181803 0.09443277 -0.01740823
-0.65970117 0.07538582 -0.02865370
-0.40869743 0.13889024 0.51556009
0.61685693 0.89887160 0.02814132
-0.69400293 1.02219176 -0.24859610
-0.72402340 -0.55600083 0.06272123
-0.72389030 -0.56551486 0.06874990
-0.73111188 -0.56663811 0.07218485
-0.73290825 -0.57812738 0.07893448
-0.74225163 -0.58318734 0.08002705
-0.74540287 -0.59672982 0.08048294
1.23647094 1.33316505 -0.32936701
0.11553049 1.28979576 -0.64134467
-1.19801354 1.47645414 -0.87853730
0.62321770 -0.01488087 0.36828858
-0.93284243 1.26400280 -0.11513741
-0.42572549 1.31732655 -0.25614184
-0.43162218 1.31579804 -0.25090650
-0.44561744 1.30009210 -0.24480748
-0.46573594 1.28902316 -0.23239422
-0.43863186 1.30962777 -0.24725132
0.24911098 1.38556492 -0.45083073
0.41755515 0.78609991 0.14265096
0.57915843 -0.14308444 -0.04304432
0.57590312 -0.16446921 -0.03480719
-0.16158824 1.21731114 -0.50244683
-0.00515305 0.24016151 -0.07567012
-0.40910444 0.24927558 0.01963522
-0.41484812 0.25269309 0.02153501
0.11040358 1.10383999 -0.57184726
0.09633154 1.07823360 -0.57556444
0.96775097 1.02202845 -0.11152597
0.58080119 -0.18466486 -0.02136138
0.65572691 -0.21942864 0.03174940
-0.59597909 0.92378938 -0.02254937
-0.59158957 0.95856190 -0.13440718
-0.59535217 0.93775940 -0.09810166
-0.59309059 0.93090236 -0.08363523
-0.59697247 0.92336828 -0.06330608
-0.59195495 0.92994893 -0.07989440
-0.75139225 -0.50613672 0.05121818
-0.35912511 1.48772407 -0.12760508
-0.97334009 1.40654349 -0.28607535
-0.96935076 1.40674889 -0.28690401
-0.97069430 1.38759494 -0.26021272
-1.06639636 1.28012431 -0.21781725
0.25868914 1.63126206 -0.42689538
1.02467978 1.00406599 -0.25733766
1.02870488 1.00618529 -0.24816693
1.01557159 1.01096117 -0.21229833
1.01144612 1.01450419 -0.19632278
-0.10919211 0.37289780 0.60335672
0.30412078 1.37136769 -0.29974064
-0.42753050 1.45121264 -0.08539909
-0.40493214 1.45242274 -0.10130206
-0.15402590 1.19159341 -0.39761567
-0.14308670 1.18023241 -0.40828273
-0.14253913 1.18329883 -0.41285753
-1.06095982 1.25413907 -0.20276073
-1.04727352 1.22544169 -0.18740785
0.57778943 -0.35015312 0.40933269
-0.24533254 0.08791340 0.10135677
-0.47453132 1.44846582 -0.06031798
-0.45479506 1.44620132 -0.06824300
-0.39945278 1.44146800 -0.12179393
-0.38848585 1.44186294 -0.14004476
-0.18930919 0.38112357 0.59110409
-0.54970241 0.13608596 -0.02233956
-0.54655707 0.12790579 -0.02479399
0.63455760 -0.68650979 0.39084089
-0.12296649 0.08294326 0.26714766
0.25357035 -0.64922595 0.33318183
-0.83532333 1.29520786 -0.45145914
0.58430457 1.01453030 -0.12580270
-0.12751119 1.67978740 -0.49085128
-0.11726993 1.68565547 -0.47141787
-0.11582592 1.68786299 -0.46637541
-0.11012913 1.68853903 -0.45346648
-0.36065966 0.04207779 0.00691033
-0.46481866 1.11300957 -0.22775705
0.00152969 1.08657527 -0.73992908
-0.68565840 1.11294532 -0.27762157
0.13870521 0.03646152 0.20909956
-1.24627566 1.19454598 -0.81216657
0.42807379 -0.42078868 0.08290933
0.43762439 -0.41431329 0.07937040
-0.13813713 1.18291795 -0.80832368
-0.15021974 1.18997443 -0.77336109
-0.12016997 1.15696549 -0.83468586
-0.14704071 1.18563473 -0.79149795
-0.14571437 1.18233883 -0.79043436
0.19713929 1.71005785 -0.32830968
-0.11345236 1.21074545 -0.85837913
-0.12198586 1.20585775 -0.84436339
0.06926395 1.11254263 -0.37481639
0.19864026 1.64008379 -0.55421829
-0.53678912 0.85777932 0.22472352
0.50087756 -0.17240416 -0.04353109
0.49967960 -0.18880828 -0.03660896
-0.19509770 0.67434937 -0.14012606
-0.20066649 0.66932929 -0.13528578
0.28467748 1.63403976 -0.35261014
0.28682849 1.61051476 -0.35894156
-0.37379077 1.37235808 -0.25269908
-0.39230853 1.36745608 -0.23674101
-0.41827175 1.36751485 -0.21718562
-0.42947266 1.36668420 -0.20642740
-0.43566751 1.36112511 -0.20424846
-0.45726466 1.35629117 -0.18293755
0.94386280 1.43686497 -0.17624682
0.49368277 0.28794441 0.36306709
0.95873469 1.03138793 -0.39547569
0.54565924 0.30224416 0.22688808
0.58055049 -0.18851799 0.33890727
0.91164750 1.13420415 -0.39989772
0.89145243 1.12592232 -0.40634465
0.86076123 1.11135089 -0.39942622
-1.01581323 1.50882447 -0.73036838
-0.58287096 -0.97690213 0.51052594
-0.91520023 1.00224400 -0.36769125
-0.37873971 0.52680695 0.14320993
-0.84049326 -0.43729323 0.20028564
-0.82844144 -0.45521706 0.22073470
-0.82882369 -0.45957124 0.23949844
-0.83200234 -0.48591074 0.24483454
0.32741350 -0.39033028 0.41560230
-0.54501361 -0.85125208 0.22225450
0.76633793 1.24210060 -0.25099480
-0.42550102 0.42462873 0.10205747
-0.42039257 0.42912057 0.10220575
-0.41729048 0.42752415 0.09562487
0.41128674 -0.47339386 0.09762283
0.39805987 -0.48346215 0.10517643
0.36599377 -0.50723809 0.12252484
-0.64134079 -0.25416708 0.32688180
0.72360617 1.16139519 -0.16951199
0.71369338 1.14534569 -0.16619655
0.39553076 0.37786585 0.38750076
-0.32154974 1.65962648 -0.43314135
0.99897289 1.56334019 -0.38714394
-0.37891367 1.04105902 -0.26911026
-0.38683990 1.88023937 -0.49086440
-0.11524209 0.13082677 0.11992762
-0.05842314 0.10770459 0.11520906
-0.05989989 0.10789938 0.11553749
-0.06060960 0.10809112 0.11934768
-0.10616750 0.12957430 0.12090186
-0.01316183 1.28583789 -0.79204577
-1.05501175 1.29105878 -0.78512555
-0.74308842 1.26534593 -0.27749610
-0.44297364 0.42005321 0.41206762
-0.60164642 0.31359696 0.17029454
-0.65649939 0.26780349 0.35177848
-0.11930147 1.56305659 -0.52211905
-0.12789246 1.56570387 -0.52041626
-0.13117754 1.56036282 -0.52641368
-0.37784591 0.41897601 0.48943266
-0.37022978 0.42171720 0.49438432
0.88850296 0.98603755 -0.23061328
0.85659361 0.97337627 -0.19946212
0.20955867 -0.00563047 0.37695062
-0.01160810 1.71970534 -0.24239564
0.25572583 -0.96404552 0.51017869
0.41120401 -0.78800392 0.27917439
0.47860137 1.16874051 -0.12300082
0.46666515 1.17513502 -0.12830985
0.19831419 1.59456193 -0.27223718
0.22408842 1.56776798 -0.25726518
0.21749011 1.57261825 -0.26030824
0.20687230 1.58263135 -0.26805896
0.01886070 1.42912030 -0.61796099
0.44892535 -0.31051964 0.02151464
0.39876097 0.37680367 0.10041207
0.39164352 0.37416801 0.09263835
0.66829264 -0.31609398 0.01629777
0.66213810 -0.32899457 0.01114356
0.97067410 1.51038098 -0.42318606
0.46695676 -0.22413447 -0.01143538
0.46875352 -0.23106976 -0.01041914
0.33565879 0.05482550 0.49260965
0.80380011 1.18979084 -0.31967691
0.06849948 1.08491135 -0.78778780
0.03944244 1.09257925 -0.79043895
0.02338744 1.10033262 -0.79184091
-0.03437445 1.09182096 -0.76993614
-0.00097568 1.09826505 -0.78328645
0.32203513 -0.50915956 0.15206654
-0.68952709 0.04219817 -0.03005560
0.54154247 -0.62526661 0.54994750
0.29673803 1.17686129 -0.22838831
0.29793638 1.18171799 -0.22779493
0.31656700 1.17871928 -0.22192949
0.31896904 1.18819928 -0.21885994
0.32421091 1.18560469 -0.21742792
0.32364708 1.19397795 -0.21348658
0.34528551 1.18216395 -0.20718351
0.33738431 1.18678451 -0.21044923
0.08581801 0.37718120 -0.06831013
-0.78750098 0.04999980 0.16927977
0.93569273 1.35779893 -0.09248150
-0.73211211 -0.88273609 0.40723163
0.03004567 1.09844279 -0.36161590
0.21238528 0.04012279 0.05146969
0.21042231 0.01349769 0.06253249
-0.53597969 1.35234940 -0.08246300
-0.53908879 1.34827960 -0.07429205
-0.15636769 1.18867564 -0.35714146
-0.47681883 -0.18515211 0.35826299
0.46640497 -0.72610521 0.23899941
0.48124716 -0.70835525 0.21931410
-0.09570523 1.64072585 -0.46370727
-0.10816751 1.65898263 -0.46692395
-0.09134470 1.11222517 -0.79109347
-0.71504182 -0.78657860 0.14693572
-0.96624714 1.44595647 -0.40169728
-0.34114087 1.45347118 -0.21506327
0.23951671 -0.52822244 0.26554158
0.23971486 -0.53127909 0.26609927
0.24904464 -0.50952637 0.24295515
0.25537840 -0.49839556 0.23195256
-1.01429260 1.42556465 -0.34058720
-1.04064834 1.37013638 -0.79089636
-0.79660010 -0.18803789 -0.05300879
-0.67148501 -0.88199943 0.43662348
1.22075772 1.35337615 -0.46048906
-0.88913858 1.01630092 -0.40515566
-0.28157121 0.12009089 0.49540445
-0.26591358 0.03619683 0.11942161
-0.61917698 0.33239564 0.32702827
-1.02559984 1.44131923 -0.37817532
1.14724791 1.66838288 -0.53868341
0.82658446 0.95533174 -0.14857090
0.54146028 -0.26069960 -0.00918884
1.06854820 1.05637157 -0.37032950
0.51251549 -0.62385654 0.13952996
0.47790673 -0.65101492 0.17906998
0.47354189 -0.65098721 0.18046230
0.46733215 -0.65951067 0.19198379
0.45289844 -0.67800921 0.20615694
-0.79194981 -0.66637254 0.16777436
0.30300087 -0.76715761 0.32721347
0.54187894 -0.16956054 0.37284279
0.53584594 -0.17046385 0.37844518
0.49059740 -0.15353930 0.41692454
-0.32105282 0.22091302 0.52381444
0.15549986 0.69489735 -0.18473116
0.68668652 -0.13900487 0.08189899
0.56872398 0.27620459 0.28531474
-0.53034747 -0.87685412 0.43469745
0.18141408 0.09803669 0.05417942
0.17913380 0.10212629 0.05555026
0.18964380 0.10732205 0.04768155
0.43695614 0.87755895 -0.05465025
-0.35949421 0.44614825 0.07753570
0.15345487 0.46200866 -0.03178552
-0.21855080 0.03917000 0.20146139
-0.22697771 0.02923817 0.20313303
-0.21490176 0.02567497 0.22987920
-0.07220425 0.99608326 -0.23688720
-1.09038079 1.32908332 -0.93026888
0.43776944 0.82111365 0.11397672
-0.34110206 1.36851537 -0.31008095
-0.71593988 -0.12976608 -0.04977729
-0.56393051 1.22396457 -0.16911028
-0.34323910 0.12041050 0.51261085
-0.48715019 -0.28690079 0.20941299
0.48925802 -0.79350698 0.58205277
-0.45865020 0.76930648 0.06788112
0.63706058 1.01974154 -0.15023768
0.58801961 1.22044528 -0.09788243
0.60290742 1.22037482 -0.10377859
-0.53640842 1.35636401 -0.06427214
0.14736477 0.56347173 -0.06222684
0.96918213 1.66819263 -0.48620251
0.15092587 1.14125001 -0.26898247
0.92569089 1.32535577 -0.07282608
0.47669694 0.22513674 0.44963863
-0.34180543 0.43366790 0.06057181
-0.37663195 0.41252068 0.06822660
0.28764150 -0.45662048 0.40951526
0.29734471 -0.45918652 0.42589492
0.28007293 -0.43063504 0.37086535
0.28264031 -0.41822049 0.35147014
0.28163114 -0.41738462 0.34380630
-1.24343896 1.29725850 -0.85437602
-0.32627493 1.90040612 -0.60589516
0.56986803 -0.05171817 0.40230888
0.58283406 -0.06677181 0.38614056
-0.50554568 0.11271154 -0.03100859
-0.50570697 0.12625854 -0.03021361
-0.50553590 0.13305666 -0.03025934
0.29299992 -1.02591336 0.61898738
0.30490074 -1.04746938 0.62265801
-0.39759412 0.65247703 0.17472142
-0.40533215 1.89115167 -0.51472837
-0.18949091 1.32269573 -0.58550042
0.34798720 -0.69323438 0.22414401
-0.65789509 0.04021880 -0.04336471
-0.66149151 0.04961415 -0.04053975
-0.71576446 0.22710624 0.28806293
-0.72313935 0.20422736 0.28788376
0.19724469 1.26949835 -0.46718669
0.07316733 1.29162109 -0.72304422
-0.75584692 -0.61937910 0.10313755
-0.83374196 -0.46126071 0.31432721
0.11530998 0.53001797 -0.09844883
0.26008368 -0.96702361 0.53628695
0.55837166 -0.88092548 0.23981266
0.57474566 -0.88659245 0.23882647
0.27615821 1.15730929 -0.22528096
0.27132693 1.15258098 -0.22335774
-0.19989672 0.21088384 0.54611659
-0.19743469 0.21191269 0.54736000
-0.51901639 -0.34112895 0.33306974
-0.76030612 -0.51516998 0.05929736
-0.76912123 -0.53145194 0.08037098
-0.76852822 -0.53645390 0.08053813
0.44976664 1.19240236 -0.16189887
0.45105702 1.19000268 -0.15574075
-0.54288828 -0.61709648 0.08009198
-0.54913723 -0.62917858 0.08326988
-0.59494221 0.27236846 0.11602715
0.22483216 0.12464559 0.02296504
0.21878059 0.11784023 0.02549273
0.23180993 0.14390294 0.02314326
-0.15671527 1.72755110 -0.54786485
0.27515602 -0.59583777 0.44515908
0.26755363 -0.59366417 0.43543029
0.54220784 -0.35975704 0.44872618
-0.84087241 1.22609818 -0.43783578
-0.01393372 0.14072634 0.23354773
-0.77069086 -0.19948547 0.24271786
-0.46493784 0.85589266 -0.11250935
-0.46189779 0.85598958 -0.12390548
1.18194103 1.23531926 -0.47199276
1.18579662 1.22498655 -0.46357682
-0.57814568 0.30786780 0.14280497
-0.30212307 1.85963821 -0.43034452
0.18651576 1.60528243 -0.23675492
-0.94652778 1.04033923 -0.53436923
-0.94546592 1.03843176 -0.52761614
1.16773701 1.64246368 -0.58254957
0.50766313 0.23651698 0.41965619
0.96287340 1.50603330 -0.28201878
0.26415730 -0.94164401 0.51400328
-0.75779539 -0.29420838 -0.01393865
-0.73989302 1.23937094 -0.29388970
-0.44190806 0.75206691 0.05830277
-0.41232166 1.40344441 -0.17797071
0.19654875 -0.03033504 0.34130800
-0.62316674 0.00767095 -0.04414686
0.53096563 -0.18233268 -0.03663423
0.48390156 -0.34884134 0.45401457
0.48147795 -0.33825278 0.44407192
-0.89136255 1.01646554 -0.36970639
-0.89302289 1.01545382 -0.36612138
-0.74659687 -0.34385976 -0.00749030
0.92600977 1.13944662 -0.43161601
0.93017405 1.14523864 -0.43836719
1.18526495 1.42401242 -0.39455554
-1.05041671 1.30913377 -0.21891384
-1.04690981 1.29273844 -0.20955867
-1.04309785 1.26649427 -0.18833463
-1.04308021 1.27326357 -0.19206221
-1.03736949 1.26245165 -0.18340935
-0.90497416 1.44928813 -0.53349483
0.34152338 -0.53889805 0.14164123
0.93900394 1.45812774 -0.19865078
0.65973270 -0.32910344 0.00797418
0.63820618 -0.33470249 -0.00963204
0.41496763 0.32147920 0.09613856
0.42218366 0.34148324 0.11272286
-0.11389104 1.34468412 -0.65785593
-0.10218084 1.34179962 -0.65567887
0.94620860 1.39627528 -0.13446899
-0.21030878 0.38284490 -0.02704138
-0.25767025 1.89659250 -0.47999623
-0.47657216 1.05231845 -0.19837520
-0.57092243 0.19031364 -0.00156489
0.49283621 -0.87802887 0.21538179
0.20547909 1.80385220 -0.42528844
0.19947512 1.79232407 -0.41431081
-1.17872834 1.14613903 -0.60588032
0.43921325 -0.39370868 0.48719978
0.12332139 0.32884765 -0.02854342
-0.62937063 -0.13403396 0.37734905
-0.97114420 1.37255299 -0.24749251
-0.98083985 1.35083234 -0.22606364
-0.97444987 1.30049574 -0.17616652
-0.97608912 1.31029248 -0.18316935
0.65819168 -0.20426600 0.18775156
0.24866329 0.22155178 0.00211041
0.25256693 0.22438441 0.00262749
-0.71482015 0.22754046 0.30216986
-1.22638667 1.33532763 -0.50154734
0.68545443 0.93023276 -0.13750857
1.12210393 1.12392557 -0.41957965
1.12128520 1.14773834 -0.45889792
1.12010610 1.14414012 -0.45671916
1.11864996 1.15920031 -0.47289178
1.12247789 1.15808070 -0.46756911
1.12269807 1.16810882 -0.48812324
1.12220144 1.16685450 -0.48656055
-0.05041293 1.05145144 -0.57107782
-0.58644223 1.32443309 0.02236878
-0.59028685 1.08818984 -0.21794334
-0.73328781 -0.52802712 0.04964059
0.68180168 -0.17371438 0.12987764
-0.94459450 -0.96964514 0.27460164
-0.98156530 -1.04318178 0.22402444
-0.66906118 -1.00106311 0.48213634
0.23114206 1.82983959 -0.43012416
0.31449899 -0.77405226 0.55653703
-0.81285238 -0.38408893 0.34900859
-0.54087234 0.88615626 0.13198356
0.26994836 -0.64103919 0.27435040
0.68511766 -0.07115207 0.25417253
0.68366373 -0.08306840 0.24841593
-1.21108413 1.19081426 -0.75116807
-0.25060028 1.57616603 -0.43663096
0.58803791 -0.28925258 -0.03397989
0.59563017 -0.28383034 -0.03492051
0.69186276 -0.08371212 0.20540684
0.25288033 -0.58891511 0.28276396
-0.45499417 -0.34345016 0.19573738
-0.70636201 -0.70741200 0.13721235
-0.98308963 1.48035026 -0.54141480
-0.30232188 0.59191889 0.02931841
-0.81210679 1.17654705 -0.44628859
-0.78238624 -0.57747459 0.40292999
-0.77904171 -0.57894486 0.40685895
-0.78708804 -0.54950887 0.39961514
-0.04878781 0.45283118 -0.10323834
-1.12291050 1.46868706 -0.47837442
-1.11333680 1.47058392 -0.47749278
-0.34215775 -0.13871837 0.25158820
0.45265213 -0.93169463 0.08172287
-0.76508856 -0.57732588 0.08246890
-1.05169141 1.45468235 -0.83589917
-1.04801524 1.45327342 -0.85103357
-1.04635561 1.45376778 -0.86205208
0.57657737 0.92367738 -0.07646950
0.41008937 1.81955600 -0.45879233
-1.11769736 1.12043989 -0.64120108
-1.11552167 1.12341571 -0.64895803
-0.56193203 -0.16141641 0.36825928
-0.34018090 1.85399806 -0.60018784
0.19201046 0.43510985 -0.01241202
-0.81924868 1.06061780 -0.34501106
-0.53805840 -0.93772578 0.49236974
-0.55691743 -0.92908615 0.49340135
-0.55723941 1.33743989 -0.04293980
-0.98264366 1.12420785 -0.63394189
-0.98089290 1.12640595 -0.62182611
0.77090836 1.25468242 0.08061232
-0.81026256 -0.26244971 0.21324447
0.42031145 0.82142991 0.01358443
-1.22656918 1.17156577 -0.51881629
-1.22392452 1.17819285 -0.54465669
-1.21843159 1.17606223 -0.55712324
0.16435573 0.03124516 0.33811998
-0.47738296 -0.23651323 0.25216010
-0.47154671 -0.23407730 0.26213625
-0.72396290 1.32785690 -0.08923044
0.64380586 -0.05343552 0.31859699
0.23985292 1.69448507 -0.56268555
0.35790130 1.69721353 -0.41478661
0.36150748 1.70104039 -0.41488126
0.37247708 1.71936250 -0.41628087
0.37714854 1.72827303 -0.41228998
0.57050747 1.24055576 -0.07029427
-0.41600871 0.15298086 0.51401764
-0.40375295 0.13642196 0.51514858
-0.41938049 0.16670904 0.51224142
-0.43000138 0.18397638 0.51092565
-0.92862940 1.12336457 -0.51683182
-0.93919766 1.12191832 -0.52415222
-0.15081032 1.19724584 -0.77857649
-0.15313719 1.21529603 -0.76917177
-0.46050036 0.44908932 0.17661184
0.10117844 1.13941860 -0.69477993
0.99529850 1.00385344 -0.31419027
0.51633507 0.30952805 0.15103951
