0.47711429 0.82913697 0.24601597
0.20325840 0.05490381 0.05187745
-0.45194539 -0.18658327 0.33693981
-0.13296388 1.78728580 -0.07774147
-0.15079308 0.65200812 0.63273847
0.07008976 0.95674741 0.76259047
0.14165409 0.92089581 0.72843707
-0.25731629 0.54098922 0.60084438
-1.18844235 1.23411953 -0.26152420
-0.33395791 1.19303226 -0.25591409
-0.35878015 1.40953374 0.59214503
-0.35131639 1.41303158 0.59704047
-0.45487905 0.08917174 -0.02828410
-0.62990361 -0.81977868 0.16719238
0.39830455 1.52234435 0.44980669
0.38898093 1.52445531 0.46921545
0.33245462 1.55977523 0.10448804
0.34595677 1.53721893 0.10252537
-0.19880649 1.25081599 0.76036972
-0.15279782 1.25702584 0.77144223
-0.09726420 1.28289616 0.77895850
-0.60541791 -0.70273823 0.46282542
-0.01013687 1.75561488 -0.17619698
1.10667539 1.20191097 -0.05258640
0.50081241 -0.51124477 0.07670129
0.38220775 0.98753142 0.60336226
0.38710222 0.93186855 0.57712495
-0.55502480 1.44287252 0.26111358
0.10770190 1.55162740 -0.50245625
-0.52207446 1.31748736 -0.14563859
-0.30978984 0.26961738 0.00969225
-0.16772516 1.71956396 -0.16971901
-0.10836767 1.75022388 -0.17141126
-0.51277810 1.45477951 -0.02305121
-0.42112744 1.00251651 0.58560413
0.01576353 1.25343752 0.78305203
0.04627266 1.26052368 0.78108329
0.07080382 1.24224710 0.78053701
0.09497481 1.23563552 0.77793002
0.34756076 1.60391414 0.27963579
0.06902692 1.18888485 0.77963430
0.07473128 1.20232236 0.77941459
0.00097908 1.20455110 0.78133738
-0.13728450 1.18033290 0.76627904
-0.10789296 1.17945027 0.77032197
-0.09871574 1.20294452 0.77533317
-0.21832018 1.14950728 0.74423385
-0.10200936 1.18503046 0.77208048
-0.05775011 1.19825161 0.77738410
0.00727711 1.18873668 0.78107482
0.11705005 1.16673970 0.77114594
0.18066511 1.16240346 0.74974501
0.27111423 0.33091918 -0.00385568
0.42756420 -0.91009301 0.14062376
-0.72998971 1.02717900 -0.26398575
0.28401247 -0.57190859 0.20928815
-0.27412745 0.80605990 0.61776912
-0.25286961 0.53889960 0.60440475
0.35895547 1.53386259 -0.04927955
0.37903062 1.50711453 -0.03708231
0.31223682 -0.44692254 0.43676159
-0.29129606 1.05524802 0.73668003
-0.03716209 1.25597143 -0.83315390
-0.66299200 0.17804335 0.42998788
-0.60573113 -0.32901436 0.38758549
-0.20381227 0.84231222 0.70111066
-0.84143984 1.08333707 -0.45413241
-0.18831773 0.87357026 -0.30099434
-0.15838259 1.78560483 -0.43664834
-0.57269639 1.06611979 0.40720987
-0.57172126 1.08185720 0.41280892
-0.41699257 0.97883683 0.58354610
-0.43221623 0.97457880 0.56462586
0.22241396 1.21253133 0.75016791
-0.38216677 1.37031269 0.61777061
-0.34823796 1.15671575 0.71892202
-0.30218336 1.16826785 0.73652047
-0.35804340 1.30429530 0.67505568
-0.37163001 1.32736099 0.64778876
-0.37244782 1.29540873 0.66679370
-0.34599346 1.19561517 0.71715754
0.46501783 1.29700649 0.47359094
0.40582854 0.77673787 0.44811371
-0.11879613 1.09423566 0.77580112
-0.30905831 1.65138555 0.10238638
-0.31286409 1.64098275 0.09188738
-0.34473556 1.60216534 0.10000828
-0.30573943 -0.01072672 0.11108661
-0.82553935 1.12981069 0.11195009
0.19263344 1.63106084 -0.14157297
-0.35729575 0.47354534 0.48080614
-0.14099462 1.16353321 -0.61157030
0.24629927 0.87219912 0.65990531
-0.08807071 1.13084137 -0.68724072
-0.78622204 -0.13793281 -0.04467192
0.25538516 1.74307275 -0.54495591
0.46366006 0.91037661 0.43607736
0.15054250 1.43385196 -0.64856070
-0.29698509 1.51650620 -0.21029513
-0.50893873 1.10694683 0.50330871
0.33437291 1.15998852 0.67018485
0.35717478 1.16354203 0.64249814
-0.80390054 -0.84327388 0.23397835
-0.08509424 1.07781863 -0.62078208
0.70324242 1.12125146 -0.17255311
0.90746450 1.34830129 -0.37408727
-0.79407889 1.31583405 -0.37549138
1.16125882 1.22003019 -0.10483341
-0.32965112 1.51466596 -0.13347426
0.31276661 1.37865138 0.62948376
0.28428280 1.34564698 0.67923504
-0.37055799 1.62123549 0.18008596
0.41900137 0.39484352 0.30327356
-0.45543918 1.54055738 0.36442330
-0.43892735 1.55758464 0.32252797
-0.43174472 1.56928754 0.28340933
-0.42710516 1.57487500 0.26727515
-0.55880988 0.98818141 0.41411173
-0.49459213 1.17342639 0.55456591
0.29499641 -1.04523718 0.54936284
0.47198695 1.42420459 0.09894007
0.48735687 1.40750110 0.07576340
0.56372321 -0.33970034 0.40186357
-0.30685225 1.09826827 0.73397899
-0.28534311 1.12257278 0.72997111
-0.25375679 1.09836447 -0.24144369
-0.46236774 1.49501657 -0.00253971
-0.58060795 1.15847349 0.45006055
0.63181198 1.20399404 0.25989804
-0.16635691 1.10667753 0.76714748
0.12522644 1.12803841 0.77110237
0.14613420 1.11790502 0.76478076
0.07519075 1.12673199 0.78124654
-0.13198669 1.11334276 0.77337801
-0.06349108 1.12076759 0.78087348
0.72572041 0.91539007 -0.09093647
0.50666785 1.14307237 0.41180325
0.48508000 -0.09339768 -0.04873591
-0.32393315 1.61529922 -0.10609975
0.30418772 -1.03257430 0.48939574
-0.19109255 1.76414466 -0.08558536
-0.08781636 0.11281561 0.30281085
-0.54355073 0.87419224 0.30003381
0.98018003 1.48192847 -0.22453518
-1.17725575 1.13321400 -0.59014130
1.11325085 1.32065785 -0.05712229
-0.50888938 0.87233728 0.39085272
-0.43058977 1.52271569 0.02231706
0.54469478 0.25454286 0.10204915
0.53760827 0.26542768 0.10771838
1.21394110 1.18777621 -0.27841231
0.48523885 -0.95005292 0.12903641
-0.62306249 1.31434333 -0.07580486
0.32613099 1.61766505 0.18364538
0.34855071 1.58618510 0.18506074
0.07978588 0.88312072 0.69426751
-0.55122918 0.03694219 0.47662309
-0.64147419 0.06814347 0.44530362
0.54398125 -0.15916967 -0.04942228
-0.95677704 -0.94817317 0.18990096
-0.55029351 0.97849971 0.43051875
1.24420011 1.25137174 -0.17990491
-0.14696300 1.72938764 -0.34095082
-0.54778528 0.91618645 0.00657311
0.29867837 1.32651901 0.67861813
0.29086581 1.30866170 0.69144142
0.29599267 1.28649926 0.69455802
0.27309531 1.27227080 0.71401411
-0.24334002 1.53810477 -0.44245970
-0.99806577 1.18674123 -0.63778228
0.01418451 0.67377478 0.62059605
-0.10204872 1.43138540 -0.68786371
-0.42698228 1.08323574 0.60042614
0.83606243 1.12547672 0.12506294
0.37508243 1.40820718 0.56579727
0.37721899 1.38599133 0.57186580
0.36457035 1.37101769 0.59000117
-0.58098131 1.07872260 0.30922872
0.19932145 1.66693175 -0.13991243
-0.81533390 -0.06996543 0.14588189
0.39902177 0.13601752 -0.01186064
-0.52363789 -0.38033918 0.38098210
-0.62579978 0.95557040 -0.16426212
0.33254322 -0.20499192 0.09449948
-1.24368703 1.19242656 -0.79976970
-0.46023098 0.85379034 -0.13063867
-0.45425010 0.84361309 -0.15684736
-0.35250613 1.57629406 -0.11044377
-0.38335460 1.54723680 -0.09176269
-1.11332917 1.13598228 -0.67049825
-1.07954752 1.12054777 -0.66901684
-0.41574359 0.84637761 0.56037802
-0.33443978 0.89523906 0.65280801
-0.06203840 1.79299259 -0.13262917
-0.06449962 1.78207374 -0.14510675
-0.29278770 1.00139463 0.72819996
-0.04118926 1.77419937 -0.15694286
-0.56835210 -0.36196104 0.39099440
-0.15150838 1.16702020 -0.56244224
-0.14102225 1.40691388 -0.68170339
-0.08252569 1.56827772 -0.53407979
-0.21147420 1.82438087 -0.56461942
-0.48728511 0.14968157 0.51442099
-0.73649782 1.29945338 -0.21315186
0.40055710 -0.07456854 -0.03880794
0.58143663 -0.38353905 0.00612707
-0.41606897 1.58060086 0.25866979
-0.45119575 0.76417494 0.23404184
0.24378294 1.29281175 -0.41982603
-0.62633306 0.25671476 0.40658933
-0.07772923 1.11202466 -0.41449773
0.21448287 0.94594383 0.70150554
0.17426367 0.93302506 0.72066396
0.05842027 0.77941030 -0.25091922
0.41362789 1.45741642 -0.00420434
-0.12904328 1.78091180 -0.13323456
-0.63800311 -0.33341467 -0.01598705
0.76351261 1.02566123 0.16637667
-0.35351017 1.10519552 0.70531106
-0.02380576 0.85475880 0.68944812
0.64436156 0.17326051 0.25237364
0.66382605 0.14173216 0.21974765
-0.02931560 0.92393833 0.68171376
-0.60574549 -0.10427874 0.40172443
-0.26655945 1.69743025 -0.01296401
-0.29679766 1.64440584 -0.00565228
-0.79663509 0.94838434 -0.08437444
-0.44602808 1.48821664 0.45407373
0.44158477 0.12225922 0.50586993
-1.20257473 1.22035551 -0.92422318
-1.20208871 1.20047224 -0.92640209
0.88750982 1.10115290 0.11922951
-0.89894933 0.99042511 -0.07857144
0.41306642 -1.02616942 0.10496519
0.03106696 0.66589099 0.61859298
-0.40657863 1.51934576 0.07597789
-0.49859124 1.38534307 -0.09912000
0.31134364 -0.93755853 0.34381741
-0.06540121 0.94574487 0.71293432
1.11096334 1.10278535 -0.12061091
0.27877620 -1.03490758 0.39856032
-0.60369062 1.13627899 0.27273583
-0.56572062 0.99688429 0.39179429
0.29797691 0.96265364 0.65697974
0.42092252 1.53334022 0.35885629
0.41298583 1.51474380 0.40089762
-0.71534985 0.20327350 0.21804076
0.43435666 1.52603197 0.30210555
0.45493743 1.49947155 0.33287311
-0.34983826 0.97503400 0.68080944
-0.33585954 0.97461116 0.69592160
-1.24496269 1.36579323 -0.45929408
-1.21374416 1.38006389 -0.50870335
-1.22745633 1.16211510 -0.35701382
0.73388106 0.98265356 0.20418631
0.36621690 -0.98504317 0.63385856
-0.84556556 -0.21158822 0.03752438
-0.05896406 0.56818020 -0.15858395
0.41132227 1.46627200 0.47086698
-0.44376287 1.38174725 0.52469552
-0.30734724 0.04527111 0.03779217
0.33803773 -0.15399940 0.02422311
0.01755473 0.59769893 0.62761587
-0.39314300 0.67935187 0.05601828
-0.36402491 0.62124705 0.44853735
0.02951725 0.93454063 0.68797570
-0.35988137 1.02226365 0.69628245
-0.38196570 1.02521634 0.67495131
-0.64120394 1.24098289 -0.22938740
-0.16093016 0.99439114 0.75531644
-0.12547880 1.00464797 0.76092702
0.42663747 1.46575105 0.45508114
0.41443968 1.41361070 0.50223905
0.39950365 1.32075822 0.57803202
0.40057141 1.30439961 0.58711714
-0.57225013 1.02071023 0.29509616
0.19663991 1.01715827 0.73000824
0.21241370 1.00027657 0.71880978
-0.49128863 1.50743937 0.32736054
-0.40182170 1.14322865 0.66955096
-0.43097624 1.34093261 0.58983296
-0.43284076 1.26236272 0.62456614
-0.42867801 1.21873891 0.64473027
-0.83609402 1.27455854 -0.00927592
-0.21082076 1.32078171 -0.56659222
-0.80036104 1.17357814 0.12872547
-0.84193033 1.36504674 -0.31737882
0.48945925 1.06175733 0.38558355
-0.55655032 1.08216882 0.45391020
-0.53850836 -0.00170398 0.47506791
-0.50404572 -0.00252569 0.47517693
-0.34261969 1.59305811 0.00827509
-0.34889516 1.58219421 0.02210156
-0.36651683 1.56051803 0.03588026
-0.50279284 0.83623713 0.39206168
-0.34314919 -0.15177952 0.22337689
-0.45849013 1.54948413 0.25529501
0.20226528 0.40779355 0.56353116
0.33359578 0.78382945 0.55474722
-0.49053255 0.34082383 0.12883075
-0.78096879 1.26464188 0.08502179
0.41202217 1.54743242 0.28033635
0.41474628 1.53665531 0.25808269
-0.71579319 0.01518044 0.37289840
-0.73123002 -0.00695087 0.35618404
-0.17869863 0.52373236 0.63354331
-0.52414989 1.44861722 0.32079783
0.33361006 0.82042992 0.57847607
0.32378381 0.83639544 0.58227462
0.28309104 0.81196231 0.61863321
-0.53230202 0.28541315 0.45349917
0.13559981 1.21011388 -0.40063766
-0.60933334 0.19547725 0.46265665
0.32551357 1.28141999 0.66700357
-0.67915004 -0.66160363 0.10475705
0.07198949 0.63264817 0.65297031
-0.51059335 -0.80794191 0.21995772
-0.21940835 0.49547452 -0.03751710
-0.86373180 -0.91288936 0.07707590
0.26104897 -0.61609733 0.42605695
0.95672661 1.03314161 -0.06984233
1.23579204 1.36667323 -0.60921067
0.47756302 0.28732258 0.36684200
0.26456654 0.78293896 0.58394384
-0.05941039 0.66868865 0.66579312
-0.04424886 0.64369071 0.64367700
-0.65097207 0.10859685 0.43573093
1.11722958 1.67398536 -0.49642959
0.28125983 -0.70295060 0.48795196
-0.46652433 1.30982256 0.56424052
-0.41732574 1.52697003 -0.05008724
-0.77920640 -0.91755873 0.04756002
-0.50626785 0.22646520 0.49772182
0.44798777 1.17109823 0.54922783
-0.33321559 0.81189537 0.59890342
0.41527441 0.15934423 -0.01324858
0.65851426 -0.43449655 0.15170042
-0.36734438 0.30751067 0.01672013
-0.37594810 0.81581253 0.57393986
-0.90234011 1.44248629 -0.54741198
1.22648942 1.45700252 -0.72685313
0.21919531 0.84793311 -0.27360061
0.14618155 0.70881683 0.67775172
-0.84508586 -0.38451794 0.24135791
-0.75750887 -1.04254401 0.37982813
-0.61132199 0.27084553 0.12483511
0.45096275 0.99756902 0.50918871
-0.27799076 1.14273512 -0.25823256
-1.02216172 1.11084926 -0.17602716
-0.66281188 1.11374390 0.22581053
0.20983867 0.57115841 0.61199445
0.23572205 0.55989146 0.58140016
0.26983461 0.57263589 0.54392982
-0.13329308 1.05527151 0.76834017
-0.11868385 1.05724382 0.77038324
-0.03602698 1.07438684 0.77749068
-0.50162625 -0.10972577 -0.01832747
0.32016703 -0.66923869 0.53171116
0.33908778 -0.68785954 0.55529302
0.59228438 -0.88698554 0.34207785
-0.48915306 1.46890879 -0.04361983
0.36037001 1.58913529 0.21910419
0.34092283 0.91933513 -0.22869900
0.32494763 0.91451699 -0.23684877
-0.81703645 -0.56248063 0.20406149
0.57492155 0.26886851 0.23407888
1.20107198 1.20114112 -0.40514180
0.15918212 1.01712084 0.74577945
-0.45218641 1.47833693 0.11462767
0.65210831 -0.52728403 0.24506947
0.41293561 -0.67142230 0.58541870
0.53347403 1.07988906 0.34277740
0.38910159 1.49023867 -0.03047580
0.09787181 0.63511086 0.66441256
-0.06699052 0.34473601 0.60907102
-0.21125761 1.10652494 0.75606221
-0.13662699 1.12928474 0.76796311
-0.02303226 1.14796269 0.77209330
-0.05666819 1.13923526 0.77500957
0.12519506 1.10031819 0.77329975
-0.57753664 1.07251596 0.33363625
-0.57341856 1.03804684 0.35057214
0.34348765 1.57872224 0.16289306
0.35359058 1.56273663 0.16263135
0.38291025 1.51625371 0.13004181
-0.29597905 0.05152293 0.46757272
-0.25597969 1.71135151 -0.06050273
0.34532443 -1.01513600 0.26971099
0.05016575 1.07990205 0.78254759
0.00127777 1.09232044 0.78549665
0.11213891 1.60683215 -0.49660861
-0.41658834 0.65162420 0.28059199
0.08225335 0.62296575 0.66024560
-0.24492712 0.71329546 0.62411815
-0.32505658 0.69004166 0.54823381
0.18145904 0.79935485 -0.26418850
0.16887075 1.06952465 0.75410932
-0.11497129 0.66305417 0.66594768
-0.08769554 0.63843572 0.66520101
-0.05914155 0.66064358 0.67173541
-0.00990182 1.29664016 -0.78072286
0.91811126 1.35283518 -0.09893598
-0.83336997 -0.13318327 -0.00469063
0.61550975 -0.07058972 -0.01393087
-0.46039936 0.83973980 -0.06389914
0.35401157 0.95225918 0.60898393
0.32128152 0.94533491 0.63511240
-0.82931405 1.37715518 -0.43041846
0.91217786 1.01563036 -0.03669509
0.21161710 1.59273565 -0.13752511
0.35683429 -1.03093338 0.30847374
-0.69553995 -0.38198635 -0.01112164
0.45079601 0.93904948 0.47968435
-0.28078935 0.70839959 -0.17402361
-0.27820864 0.68291324 -0.12912785
0.03121050 0.57196832 0.65376395
-0.05698752 1.03543007 -0.59519678
-0.00830499 1.01743877 -0.61738402
0.83090770 1.38728821 -0.25349501
-1.22207344 1.39548576 -0.67837763
-0.46832427 -0.07054089 0.45559067
-0.46341467 -0.07308076 0.45402643
-1.21797323 1.35080492 -0.56245381
0.10237697 0.90243703 0.73484850
0.17037466 0.80686826 0.66071886
0.18803097 0.79315060 0.64315540
0.22785431 0.78481519 0.61275816
0.52426368 0.25938022 0.38038123
-1.15742457 1.54547846 -0.82883084
-0.22947031 0.18171129 0.04083402
-0.76470208 0.00913674 0.29999983
-0.90095043 1.04155755 -0.49836928
-0.01546045 1.08556938 -0.72967714
0.01614784 1.09010172 -0.73291999
-0.39368176 1.59241116 0.18359709
-0.19855103 1.75765371 -0.11894862
0.69928390 -1.03441834 0.27457035
0.22688930 1.14658177 0.74358457
0.32115099 1.20562863 0.68745857
0.29735935 1.16644585 0.70843196
0.44036844 0.79711044 0.31001568
0.48506367 1.43800390 0.17505656
-1.14646828 1.57247293 -0.78141665
0.47408634 0.88801467 0.34484747
0.84330755 1.00970924 -0.24566311
-0.39450774 1.52761936 -0.09910787
1.14681232 1.11534894 -0.32363623
-1.07930756 1.41059053 -0.33797887
-0.41594121 1.14077389 0.66033196
-0.39816847 1.12056327 0.66528732
-0.06575102 0.17013061 -0.02724008
-0.83663166 -0.55378914 0.29383838
-0.32885683 0.79994422 0.53959125
-0.36188781 0.80871803 0.51340157
0.32022041 0.67619467 0.08088034
-0.05771005 1.03488553 0.76311994
0.15036127 0.93554735 0.73084825
-0.41472200 1.40691483 -0.16969743
-0.30145946 -0.05752379 0.19192372
-0.39093986 0.89467180 0.59127796
-0.38165811 0.90874094 0.60131508
-0.41734359 0.90318727 0.56530362
-0.45128357 0.90505648 0.51998329
0.12875012 1.20449567 -0.86152071
-0.38026318 1.55140400 0.07525600
0.53997272 -0.12727827 0.39194480
0.40265870 -0.25342807 0.02442291
0.21454997 0.79237175 0.63005990
-0.16772734 0.19384992 0.52821732
-0.00079570 0.63769275 0.61405420
0.20961598 0.80442983 0.64869696
0.25042358 0.79085296 0.61484993
0.31189007 0.78335792 0.56582600
-0.22748381 1.73636532 -0.11309981
-0.41177064 1.51638651 -0.09898809
-0.39531547 1.51868403 -0.10474567
1.07730937 1.20640349 -0.03524972
0.25997198 1.64723241 -0.10242964
-0.69968438 1.22464061 0.16696122
-0.91096306 1.24568784 -0.02693560
-0.35051095 1.13584173 -0.24964197
-0.37307319 0.03912634 -0.00127616
-1.10108387 1.32091820 -0.22242776
-0.83298701 -0.39143708 0.30389369
-0.48201433 1.48482871 0.39189857
-0.48531947 1.45743227 0.41534421
-0.44095716 1.55502987 0.22785674
0.43668994 0.78949106 0.41788357
0.42776752 0.78503251 0.43060267
0.39569488 0.78595990 0.49687690
0.37613383 0.48776653 0.26390672
-0.40610310 0.32382956 0.03792476
-0.04015779 1.20661235 -0.95072204
-0.02287331 1.21439290 -0.98085314
-0.30797037 0.18577635 0.51980919
-0.48599231 1.25919378 0.56846464
-0.44675097 1.12820148 0.59046000
0.45459256 1.48300219 0.26497948
1.11751020 1.11789107 -0.11218727
0.19383603 1.63170743 -0.28399253
-0.28420848 0.90615928 -0.29609895
-0.27883291 0.85680068 -0.28732786
0.45291135 1.16461062 -0.16181017
-0.60055321 -0.40621391 0.01148467
0.22736128 1.75372934 -0.55910116
-0.12162714 1.73045361 -0.17671770
-0.11121388 1.73500085 -0.17646974
0.28774199 1.62422121 -0.08517438
-0.16848211 0.83393258 -0.29083967
0.29093388 -0.40381187 0.34754673
-0.11785156 0.72428995 0.68517834
-1.23706841 1.26243031 -0.36341253
0.10422607 0.51737350 -0.11002045
-1.13325286 1.06771469 -0.51781839
-0.23458302 0.66362292 0.61800015
-0.69132006 0.92745328 0.04420051
0.09356593 0.85278279 0.67902964
0.02856635 0.12208710 0.11315684
-0.97354776 1.14143240 -0.08413025
-0.06083568 0.95753658 0.76043159
-1.22641098 1.19010806 -0.56035703
-0.98901510 1.03613567 -0.23513500
0.89844424 1.13127971 -0.39565352
-0.30648687 0.97215796 0.71213788
-0.25677451 0.99052960 0.72902453
-0.47410065 -0.63086957 0.13275565
0.14931738 0.90799606 -0.28989765
0.48642576 0.13884090 -0.01140994
0.50708592 0.12877670 -0.00325361
0.35479441 0.62427801 0.42042989
0.36132544 0.59388179 0.37247619
0.36334065 0.59942144 0.37477744
0.65888494 -0.56975752 0.39558950
0.48932710 1.11547136 0.49418753
0.48403081 1.09884202 0.49532405
-0.49781027 1.33256340 0.49434453
-0.48935351 1.33041763 0.51181477
0.64875817 -0.49656764 0.16698182
-1.20208216 1.38483000 -0.37161368
-1.22275281 1.38109636 -0.40070400
-0.79546487 0.01178469 0.22522570
0.36588997 0.76469648 -0.05445467
-0.79066080 -0.47260562 0.04117924
0.36196417 -0.46180111 0.50014257
-0.63905275 0.24524653 0.40568614
-0.33355838 0.96330780 0.69148111
-0.14544764 1.06180954 0.76842380
-0.18856119 1.03322220 0.75702381
-0.11738811 1.07651114 0.77400851
-0.02195934 1.09014904 0.78005862
0.34949434 0.59756649 0.40032682
0.40438420 0.84188759 0.49330601
-0.23185644 0.27752852 0.00510101
0.37709549 0.60758072 0.29711074
0.37869474 0.59380859 0.27030852
-0.48047894 1.47426891 0.16500266
-0.31395438 1.56452787 -0.13421036
-0.28885642 1.59120023 -0.14042631
-0.22292319 1.62013125 -0.15235458
-0.28094500 1.59913242 -0.14334093
-0.27105799 1.62545538 -0.14516133
-1.13425601 1.45289385 -0.44647545
0.38750175 0.74923640 0.07456455
-0.84070253 1.05139112 0.07304289
0.40146670 1.46084976 -0.04805267
-0.75814939 1.21775103 0.14770049
0.36241654 0.72178692 0.34260195
-1.25846291 1.30280733 -0.48681194
0.22813909 0.88465768 0.67746443
0.30231562 0.88671243 0.61846370
0.38009089 -0.07076624 -0.02678682
-0.57989687 1.29814065 0.15687980
-0.37788841 0.95792574 0.63009650
-0.42757732 0.95838523 0.56411600
-0.46762320 0.97393596 0.53168988
1.10638678 1.40128350 -0.65539175
0.65572393 0.13705212 0.14461622
-0.13239466 1.03762949 0.76546520
-0.02997650 1.06489480 0.76794416
0.56868237 -0.08019899 -0.04381447
-0.42260960 0.75850463 0.34463003
0.46403018 0.81880862 0.35977194
0.68100780 -0.25702518 0.04253936
0.07369523 1.05624366 0.77322990
0.06449839 1.03130639 0.76879120
0.10544236 1.01209712 0.75818121
0.14632910 0.97726673 0.74129808
0.18012533 0.95797002 0.71924090
0.25472581 0.67669737 0.57510233
-0.16358776 0.67689842 0.65117025
-0.18593571 0.67964244 0.64524478
-0.43085611 0.80209464 -0.09429213
1.14198565 1.10856521 -0.34190869
-0.60197401 0.00040656 -0.05175912
0.33934081 0.08675544 0.50546724
0.39961618 0.82652152 -0.10052954
-1.05074692 1.28235900 -0.20736173
-1.07042301 1.25688028 -0.21170084
0.28608897 -0.16699277 0.33735526
0.66546142 -0.07163414 0.28958675
-0.22432078 0.88435513 0.71548641
0.08634812 1.10479498 -0.54307485
-0.33008051 0.72398990 -0.15749221
-0.49124384 1.51041543 0.22910848
-0.49334431 1.51480961 0.24668442
-0.49645954 1.50210333 0.30469751
0.31176049 -1.04901242 0.58056980
-0.77468526 1.25415504 0.10396610
-0.75153947 1.27379346 0.10838659
-1.25435686 1.16825533 -0.43583164
-0.12858298 0.89028168 -0.28703558
-0.04843349 1.00960410 0.76615906
-0.01567096 1.01198363 0.77072096
0.90622169 1.11021507 0.03509284
0.97730410 1.56311071 -0.46773487
-0.50306606 1.45929539 0.16774033
-0.80562115 0.99216092 0.07523146
-0.40823290 0.71927780 0.05922303
-0.46883368 -0.39529929 0.08699595
-0.30907243 0.75329775 -0.21093214
-0.35208505 0.77470940 -0.20500314
-0.31810901 0.93361038 0.68916279
-0.30489954 0.70679075 0.56243986
-0.95503920 1.39543533 -0.27277523
0.37731531 -0.77880090 0.27178243
0.62798476 -0.60239488 0.22432750
-1.19307196 1.18479776 -0.26550823
0.48582947 0.21195306 0.02810900
0.51169330 0.27955103 0.10280524
0.54039502 0.25097698 0.09276577
-0.34948865 0.63346344 0.05181887
0.05242330 0.89699185 0.68714851
0.20704737 1.05171669 0.73497486
0.17124806 1.06673265 -0.24578136
0.88554305 1.11818123 0.11557908
-0.17288914 1.67313385 -0.17482297
0.39825442 0.80455029 -0.03326217
-0.70614231 0.98413754 -0.24264421
0.45789945 1.38561988 0.47049320
0.45964667 1.37107182 0.47504163
0.43246213 1.29152548 0.53695363
-0.04002698 0.89480114 0.68145829
-0.07440450 0.90620631 0.68540734
0.25989547 1.09796500 0.71127218
0.26215065 1.08986056 0.70998096
0.31078169 1.10324049 0.67302066
-0.57098198 1.22154379 0.46732455
-0.56096601 1.28420961 0.42062584
0.16959649 0.50513643 0.61965185
-0.00318975 0.59102732 0.63789999
-0.03333015 0.61377639 0.65059763
-0.60457242 -0.03164270 0.43323737
-0.12625569 0.27034551 0.55735296
0.42718878 0.86377245 0.46804795
-0.23453350 1.12536001 -0.26122802
0.20845643 1.76912236 -0.53260624
-0.13388023 0.67370230 0.66184068
-0.08161867 0.60700214 0.65908074
-0.50262487 1.45836353 0.09106146
0.54607368 0.11017296 0.00407211
0.12870093 0.62752825 0.64904892
-0.35214141 0.11987989 0.00268914
-0.59989715 1.26233625 0.26234823
-0.98403430 1.18867064 -0.12545449
0.32595640 -0.35547668 0.30169415
0.31207666 -0.14703800 0.38052320
0.60890794 -0.99363768 0.40278304
0.40152779 0.38890857 0.11155693
0.32241422 0.86355108 -0.22372404
0.06882323 0.91972339 0.74404180
-0.09926462 1.12365592 -0.47856626
0.33946651 1.15724349 -0.19155294
0.25047919 0.47557220 0.04098941
-0.20261544 0.97514689 0.74359769
-0.20383433 0.96737146 0.74236935
-0.10827888 1.02659214 0.76610321
0.08939600 0.07876671 0.38203859
0.45762107 -0.38597798 0.48498097
-0.18966198 0.93883616 0.74054456
0.12846987 0.81188840 0.67165512
-0.38134784 0.27335286 0.01752887
-0.41751161 1.04310322 0.60379499
0.27699366 -0.58710533 0.44770154
0.33662945 0.55996239 0.41351709
-0.56077164 -0.57003206 0.05922031
-0.46345893 -0.23309481 0.27387756
-0.39381579 -0.03419871 0.46362412
0.08263734 1.75245059 -0.13795212
-0.92648512 1.13646924 -0.00862119
-0.28462723 1.58613193 -0.14139885
-0.25646070 1.60899043 -0.14241624
-0.65417898 0.19369470 0.06083180
-1.26488471 1.26123559 -0.42337182
-1.26399338 1.28473377 -0.43777567
0.45277247 0.81499875 0.19172211
0.10488897 1.02038240 -0.24905629
0.29607663 0.25786522 0.51219279
-1.12081385 1.28146064 -0.92525363
-0.47727886 -1.04855728 0.43086043
0.64962000 -0.50064212 0.42397970
0.38676205 -0.01312536 -0.04023691
0.07603393 0.77014333 0.64826280
-0.47244436 -0.71770716 0.35877904
0.24762575 0.33029863 -0.01168802
-0.21931811 1.30910373 -0.34046775
-0.49054837 -0.31405628 0.19940878
0.50488585 0.99920201 0.34451076
-1.04732478 1.04127741 -0.51536381
-1.08461154 1.05252934 -0.54058158
0.63703120 0.97854340 0.25684080
0.08406709 0.96563691 0.75904107
0.12591287 0.91939235 0.73659080
-0.73627818 0.94350576 0.08814401
-0.22285256 1.65207469 -0.15455922
-0.16512364 1.68342078 -0.17483132
-0.13291243 1.70795739 -0.18145299
-0.81268978 -0.59686899 0.20772743
-0.62614048 0.22101726 0.04725350
-0.17564724 0.04942083 0.36639491
-0.41161808 0.62130988 0.31093982
-0.41615751 0.62721264 0.29753765
-0.39366126 0.65635812 0.42527637
0.45681658 1.04202604 0.49721453
-0.39889368 0.57336223 0.17672740
1.01265883 1.53078997 -0.32123896
-0.39346609 0.75826961 0.41425076
0.47247735 1.45873475 0.25771570
0.43682739 1.48149824 0.17249480
-0.66704863 0.26089722 0.33682743
-0.51301271 1.46321094 0.32677910
-0.37642848 -0.17826457 0.20914224
0.25254622 -0.59602076 0.38525942
1.18559384 1.13941526 -0.15756822
-0.49741796 1.14663959 0.53159857
-0.44430050 1.06738365 0.55607539
-0.42316028 1.02638531 0.58639657
-0.33728421 -0.06444117 0.40251371
0.66176361 1.09150946 0.28019416
0.70242548 1.13929129 0.25935856
-0.21900070 0.68248540 0.63693535
0.02510219 0.97995830 0.77296239
0.30527720 0.90593892 -0.24800003
0.30187359 0.88673711 -0.24795759
0.42058462 0.78606993 0.30220878
-0.75961822 1.29098427 0.05652915
-0.75432736 1.28918302 0.07504060
-0.70624751 1.30097485 0.07416968
-0.70049143 1.29616308 0.09076443
0.50465441 1.09300041 0.36533862
-1.07737255 1.48622382 -0.49658519
-0.58882999 1.37551975 0.22538929
0.34903482 0.67414570 0.42590731
-0.07900702 1.11176014 -0.69745183
-0.00940384 0.84053338 0.68857139
-0.00550823 0.81547213 0.68234468
-0.84791166 0.97889632 -0.08726887
-0.56034493 0.13903528 0.49932015
-1.09290874 1.55983508 -0.70449919
0.34116256 0.78089046 0.53890693
0.46000934 0.84229422 0.37281764
-0.46933961 0.03087088 0.49781406
0.64566529 0.06090712 0.31825784
0.24595669 -0.06498752 0.07985070
0.16064805 1.70479405 -0.13716248
-0.39951384 0.68771291 0.30280620
0.16284189 0.67752659 0.68143082
-0.46139014 -0.17550869 0.35722551
0.46297470 -0.49572819 0.07185521
-0.41086492 0.62323612 0.32284856
-0.37957302 0.63337553 0.41686964
-0.36506915 0.63063687 0.44648120
-0.53061932 -1.04503655 0.29231912
-0.48587766 -0.03779063 0.46753854
-0.15992254 1.22350764 -0.57055056
0.26748434 1.04654872 0.69585747
0.30105117 1.06377423 0.67901057
0.28653887 1.06825733 0.69058681
0.41327357 1.25750613 0.58586365
0.37979487 1.13583291 0.62980437
0.32793149 1.07210076 0.65251523
-0.47387594 -0.11149944 0.42109028
-0.47203240 -0.11758283 0.41635334
1.07989883 1.47826505 -0.64948183
0.49001485 1.41752601 0.14397399
0.44096184 0.84943253 0.03838682
-0.47214681 -0.62894469 0.37854967
0.12750515 0.89562029 0.73040557
0.08095913 0.96122336 0.76062149
0.52622569 1.28899229 -0.05344696
-0.86500484 1.02295542 -0.37421951
0.00306610 1.07728624 -0.71711797
-0.38367260 1.54868138 0.03520622
0.90484136 1.06623602 0.11146131
0.91374582 1.05910504 0.08503534
0.10444094 0.59395689 -0.15313399
-0.51777565 0.98675036 0.48768404
0.44645160 1.37188923 0.01803686
0.47636524 1.36699378 0.03385958
0.41929334 0.09929571 -0.03418171
-0.31288138 0.57931584 0.54230726
0.28382736 1.18126655 -0.23210804
0.27610621 1.20792878 -0.22914854
-0.47364157 -0.82091230 0.32260337
-0.44624516 -0.67024308 0.23691918
-0.70124459 0.24213219 0.18372367
-0.57518762 1.03525984 0.29715914
0.91831893 1.33537924 -0.08301821
-0.21053280 0.97827923 -0.31313664
0.35071287 0.80773538 0.56002295
0.29699495 0.80208409 0.60430878
0.21048293 0.81179959 0.65565056
0.29418370 0.94736791 0.65178239
0.28340745 0.94531041 0.65788925
0.34081525 0.93647945 0.60879868
1.03903246 1.25556719 -0.02355734
0.48712358 1.43720102 0.30781791
-0.37509355 1.79739201 -0.50268245
0.15290335 0.79252982 0.65753388
0.45416871 -0.77878141 0.60868609
0.12297415 1.13656306 -0.80971098
0.41476452 0.76276886 0.23959801
-0.41459751 0.58180761 0.28072533
-0.15074223 0.64998031 0.63132960
-0.11984696 0.63652456 0.64319462
-0.10717347 0.61969799 0.64615303
-0.69976866 -0.47466823 0.02481628
0.23843166 0.75438052 -0.22069533
0.01552419 1.57831919 -0.54129380
-0.41478729 0.57584995 0.33521464
-0.50224900 1.02390444 0.50208092
-0.50167626 1.05871904 0.50473589
-0.15347736 1.41563487 -0.65988642
-0.15804039 1.43292356 -0.67188096
1.17313218 1.24415004 -0.11320543
0.68694323 -0.07514245 0.07881910
-0.54493803 1.26950312 0.48710361
-0.54229105 1.30362558 0.44976798
-0.75750828 1.20533454 0.15984754
-0.97262502 1.07624435 -0.09929332
-0.34680563 0.45863456 0.48987454
-0.18368952 0.67796564 0.64420521
0.33910033 -0.84711528 0.57631278
-0.48159954 -1.04061103 0.49378783
0.20159364 0.42363119 -0.01042720
0.67373812 0.07204054 0.24137475
-0.12079196 0.73533362 0.67434007
0.35801685 0.66437083 0.22850662
-0.97230285 1.44857454 -0.61955434
0.90545744 1.09214139 0.04113237
-0.11544289 1.15811300 -0.42615977
-0.49409884 0.81804627 0.09593917
-0.07206380 0.71506721 0.66475075
0.14305110 1.41264534 -0.66854715
-0.47870287 0.82000893 0.40390188
-0.42861837 0.81393331 0.46579111
1.00232637 1.40200424 -0.13172963
-0.81042212 -0.24777263 -0.03360938
-0.50563288 1.37431598 0.44810927
-1.09302306 1.04300666 -0.34179416
0.32328722 0.75983447 0.47387803
0.22624756 0.69612545 0.61261022
0.80048358 0.97729903 0.10511335
0.84625340 0.93369758 0.04543285
-1.20959318 1.14855528 -0.53081065
-0.41301546 0.66216153 0.31648022
1.05692828 1.29876006 -0.54845625
-0.29263616 0.80778259 0.62512779
-0.32153365 0.64104491 0.53303778
-0.15313056 0.82022005 0.69900006
-0.22722633 0.79047847 0.65961283
-0.10064883 0.91474903 0.74018574
-0.13439021 0.87892610 0.73693085
-0.17935394 0.81077194 0.70086735
-0.25206611 0.80696189 0.64744473
-0.16391674 1.38755381 -0.60204870
0.34621671 1.53635633 -0.06987682
0.22630566 1.04104710 0.72316343
0.32429343 1.00586331 0.64778745
0.30898556 -0.23765431 0.16477126
0.12108800 1.15197229 -0.31903270
0.17005259 0.66152006 0.65231365
0.21073663 0.84847236 0.67365658
0.22409104 0.85064518 0.66637170
-0.54567260 -0.01500469 -0.04203308
-0.58355612 1.13723111 0.32970324
0.32848161 0.48458847 0.13261364
0.49548769 -0.06813707 0.44346514
0.87200642 1.16023111 0.10470612
0.43104845 1.13905215 0.58051097
-0.33639261 0.81290197 0.54313880
-0.39069238 0.63561600 0.39935121
-0.41326404 0.58728808 0.26081139
-0.84511429 -0.35441914 0.21020421
-1.21735585 1.15771711 -0.47179869
0.70226711 -0.10338843 0.16769788
0.70192432 -0.09116942 0.17863102
-1.15193653 1.09381866 -0.37528658
-0.51705527 1.35646391 0.43756503
-0.44079462 0.75383466 0.25344509
-0.41409653 0.83514768 0.55705571
-0.39072460 0.82866174 0.58040857
-0.37025723 0.81924003 0.59326470
-0.11572078 1.62057436 -0.51456976
-1.18247032 1.50017333 -0.88102174
0.27754116 -0.04504760 0.01726292
0.53296381 -0.78464472 0.28674194
-0.53742939 1.42209506 0.00273972
-0.56021672 1.14079559 0.47970715
-0.50895083 1.05931759 0.50023335
0.63208199 0.18242581 0.26936638
0.23932412 1.81809986 -0.40168929
0.23007782 0.58231044 0.59520906
0.39237246 1.15636313 -0.17231740
-0.70586240 0.07818801 0.39766943
-0.25631726 0.80529249 0.63967341
-0.18839155 0.86700135 0.71962476
-0.23434097 0.84641737 0.69969827
-0.37938929 1.46605420 -0.12232046
0.19673271 1.27121294 -0.28811905
0.35346848 0.87127346 0.56255609
0.42005160 0.87469095 0.49345148
0.41382384 0.86861479 0.50061405
0.38942075 0.77635992 0.45592025
-0.65489495 -1.03807652 0.08875667
-0.16962345 0.18070197 0.51692492
0.09406322 0.27302614 0.55511236
0.32079697 1.58300328 -0.01421265
0.48318636 0.86923808 0.08156816
0.25643983 -0.67188567 0.39013270
0.63288403 -0.45318282 0.11367150
0.00634416 1.05333626 -0.66471183
0.28432468 -0.12138142 0.37903297
-1.11243582 1.36510992 -0.25558227
-0.27020934 1.29711401 -0.28115121
0.35788921 1.54218113 0.00354750
-0.93338132 1.10403681 -0.51015848
0.38562527 -0.18992823 -0.00081041
-0.44654956 -0.35905674 0.21087000
0.49714768 -0.44404671 0.52051985
-0.29482847 0.70196921 -0.14389333
0.99743670 1.01941621 -0.14251231
1.19957876 1.14965117 -0.23619510
-0.37514859 1.51628625 -0.10957025
0.51679224 1.38528252 0.10568637
-0.80361515 0.95222306 0.01554625
0.31217930 0.05536622 -0.01241754
-0.35717630 1.93496144 -0.53068244
-0.60648733 1.18963337 0.25212473
-0.06375599 1.26060724 -0.78510827
-1.22361696 1.43682909 -0.74293220
0.50760037 1.39836025 0.27570748
-0.10047414 1.13125587 -0.40088254
-0.37004459 -0.16941854 0.27550322
0.57800615 -0.17553124 -0.02739695
0.26456878 1.75097239 -0.58671659
0.76294541 1.08385992 0.19359687
0.69358301 0.03399906 0.19892026
-0.61035228 1.20148921 -0.19743033
-0.53182107 1.36874390 0.40708664
-0.30105117 1.42984629 -0.39238766
-0.82169223 1.08024240 0.11838657
-0.59510714 1.33731806 0.19194317
-0.59316856 1.33763313 0.18004115
0.55528033 0.02942837 0.43148866
0.47865880 -0.52847677 0.55003804
0.48714277 -0.50733763 0.54286033
0.32788590 0.74163246 0.46430761
0.27050874 0.78142822 0.55971831
-0.71455884 0.22830084 0.26141354
-0.39758375 0.57325333 0.21284673
1.15551066 1.13800931 -0.39223960
0.45042115 -0.54402411 0.11533114
-0.89317757 1.35017443 -0.54682475
-0.37482923 0.82032162 0.54953235
-0.43540010 0.51680613 0.29083395
-0.46415401 0.88059807 -0.12329556
0.19494002 1.68091059 -0.13326126
-1.20080566 1.28087676 -0.29144126
-0.34743506 0.92976779 0.65647256
-0.35749021 0.93371892 0.64414012
1.06433010 1.12368679 -0.07617165
-0.36860153 0.59209418 0.46053934
-0.34252870 0.59521097 0.50501734
-0.33434728 0.59194481 0.51688248
-0.40134192 0.54388678 0.39681414
-0.95302051 1.23711753 -0.08846597
0.98106539 1.06838667 -0.06718637
0.46542308 0.07050666 -0.03977872
0.27318045 0.67733413 0.54328895
-0.29809710 0.81096852 0.59396583
0.65267181 1.09776092 -0.15844803
0.68348485 1.10696733 -0.17187983
0.36711586 1.73621333 -0.40204448
-0.05726874 1.05650330 -0.64771050
0.19314125 1.06328392 -0.24276413
0.55947554 1.32893085 0.08110537
-0.73790008 0.10161941 0.04665022
0.51197439 -0.80768150 0.54063451
-0.60526288 1.32281899 0.02712495
0.35584986 0.54738027 0.35011187
0.35925767 0.53567702 0.33836338
-0.17371005 1.20504677 -0.34683183
0.48351488 1.37901306 0.38618156
0.47758031 1.36429262 0.40651283
0.46538073 1.29129910 0.47121084
0.46799520 1.29020798 0.46603239
0.47478169 1.26110387 0.49233517
0.47590348 1.22963822 0.50665855
0.45804796 1.19749427 0.53051436
0.45916048 1.16271043 0.53215587
0.58002633 0.94242287 -0.10308348
0.44755685 0.18313543 0.47749019
0.41919655 0.16624533 0.49681064
0.90979636 1.08101571 0.01190873
0.17441060 1.25863886 -0.55808991
-0.30408952 0.83896554 0.66696346
-0.23576958 1.18695319 -0.26837307
-0.22230050 0.81915706 0.67715240
-0.23798452 0.82336885 0.67838407
-0.54723936 0.03950725 0.47971979
-0.39347756 0.67576563 0.39905331
0.21289475 1.67483878 -0.12421190
-0.51229018 -1.04672754 0.30771437
-0.34145024 0.69629896 0.49913090
0.44179267 0.80467516 0.22840595
0.39411512 1.47904813 -0.03122825
0.40421718 0.76390600 0.08289210
-0.44012284 0.80344969 0.40809643
-0.41589355 0.79992998 0.44376171
-0.49341831 -0.30235347 0.15733944
0.34827903 1.55163383 -0.04210297
-0.56470340 -0.41656926 0.42028651
-1.18713760 1.49773264 -0.87458116
-1.18968940 1.49519360 -0.87843531
-0.63632077 0.19254310 0.04285479
-1.23503554 1.32537925 -0.52561921
-0.45443967 1.18464375 -0.24422440
-0.71105564 -0.56259656 0.06138129
-0.65662324 1.28544569 0.12399504
0.47194982 1.00647330 0.40971947
-0.91657591 1.29147720 -0.12936154
0.30849555 -0.77794331 0.32923695
0.35158727 0.66129494 0.41201225
0.88705182 0.98976439 0.03661016
0.56357706 1.08358610 0.31812117
-0.51677632 0.86413753 0.37539086
0.45135456 -0.71495330 0.60073054
0.48652843 1.00241542 0.38080668
-0.60807270 -0.45628712 0.02757373
-0.11941917 1.46324754 -0.60314667
0.19589926 0.94015920 0.70563000
-0.39488968 0.68021548 0.34903324
0.52635223 -0.32075319 0.39042670
1.00069630 1.27489102 -0.49365425
0.36533764 0.59451872 0.34354714
0.72583765 1.14228964 0.23189430
-0.60101849 0.92165226 -0.05833787
0.21933378 0.49253041 0.58166331
-0.64289176 0.97823095 0.19820991
0.66001171 -1.03566742 0.29848513
-1.10566998 1.20417845 -0.85811877
-0.64793259 -1.03853190 0.09874371
1.24823201 1.26296723 -0.34052315
0.37325829 0.60307175 0.32021633
0.18167250 0.33310866 0.54797298
-0.45392546 0.81238365 0.41450357
-0.33539686 1.34050202 -0.32561862
-0.33480421 0.68366122 0.53821999
-0.13845330 0.63187754 0.63337797
0.03575714 1.09463942 -0.38488603
-0.42097691 0.04239770 0.50342041
-1.21435082 1.14337432 -0.43544924
0.94752961 1.00327206 -0.14372545
0.05933876 0.84748846 0.68289900
-0.55170053 -0.65008467 0.44658527
-1.02028024 1.07077074 -0.21901585
0.16287532 0.77903128 0.63300937
-0.37673542 0.69124216 0.41126305
-0.44541162 0.77562004 0.31003881
-0.42029938 0.77558899 0.38833013
-0.90184754 0.98460108 -0.19649181
-0.32324699 -0.11655248 0.28636140
-0.36599329 0.92873490 0.62888402
-0.38457510 0.93666130 0.61139178
0.97597188 1.67140162 -0.48774150
-0.38832206 0.74168020 0.40928471
-0.15368855 0.78110701 0.65306324
-0.30453289 0.74742234 0.55335671
-1.08609653 1.41483343 -0.92292958
-0.98267150 1.28504133 -0.17090419
-0.58989215 1.37282920 0.23676454
0.34666684 -0.75516063 0.57909977
-0.78230584 -0.08375236 0.01411773
-0.57374728 -1.04250193 0.24398851
-0.68195540 1.14666831 0.21337932
-0.67732620 1.15108323 0.21586610
0.63887477 -0.55947775 0.45049712
0.31784654 0.78380024 0.52697235
0.36588389 0.58053684 0.30654708
0.21522856 0.76317501 0.60969138
-0.58224738 1.12591672 0.40597871
0.14031559 1.20035696 -0.59986031
0.14755094 1.19641912 -0.60366935
0.73133773 1.04364181 0.22586505
-0.14443895 1.75411177 -0.46636328
0.31809992 0.07306424 0.49553117
-0.17384841 0.92420548 -0.30095205
0.57354498 0.05771784 0.42020771
-0.36813697 0.76646602 0.47492501
-0.35088882 0.76331162 0.49976915
-0.40798834 0.77651173 0.41922107
0.59852552 1.09909439 -0.14011964
-0.26602593 0.05103548 0.10679347
-0.38857162 0.56900138 0.44279844
-0.31523246 0.57272786 0.54041070
-0.33007053 0.87282151 -0.27247170
-0.52221763 0.89480782 0.36675987
0.33481434 0.47109187 0.41955253
-0.58762091 1.23741567 0.34223562
0.63718605 -0.67975652 0.41318583
-0.56995726 0.30169410 0.12323593
-1.12920773 1.24588180 -0.92039579
0.34398183 1.00001049 0.62633371
-0.62938797 0.26601455 0.39641702
-0.29476318 0.79833031 0.57643133
0.34281728 0.65430880 0.43879125
-0.37506142 0.83082449 -0.18649155
0.65865654 -0.50029463 0.30891836
0.04882620 0.70855743 0.63708335
0.02027007 0.71505529 0.63800222
0.57395285 0.93242788 0.20746271
1.22617340 1.38555217 -0.44993192
0.21320555 0.73274398 0.57942331
0.50559753 1.36408019 0.35913345
0.25897539 1.63671064 -0.10972243
0.44436580 1.31797743 -0.12822634
0.48065156 1.07326746 0.42027780
0.47601381 1.07206869 0.45002750
0.55971920 0.89287752 0.06222350
-0.40869981 0.78508776 0.43859434
-0.26788509 0.76899803 0.59271193
-0.28256392 0.53936028 0.57994431
-0.35697442 0.84587574 0.63115478
-0.17021433 1.23904252 -0.46468705
-0.32456294 -0.03869043 0.42659423
0.55783570 -0.34562394 0.42063656
-0.70241332 -0.99801219 0.02642526
-0.81791860 -0.58169669 0.19391496
0.32682922 1.46154964 -0.07777339
0.40216517 1.00784075 0.59324878
0.41237378 1.02434862 0.58785421
0.28395373 1.33217919 -0.24793564
-0.84392232 -0.24617797 0.03681369
-0.69281334 1.30374789 0.07630276
-0.94851553 1.40508938 -0.64330417
0.41322976 -0.76521999 0.61423969
0.62587231 -0.50794446 0.46929863
0.36945316 0.64159715 0.32363418
0.33282113 0.70202297 0.46022102
0.25159106 0.73340255 0.54679745
0.22502823 0.73964429 0.57367426
-0.76720607 -0.03134501 0.29409671
1.07257569 1.05797708 -0.15948391
0.60241723 -0.38204402 0.00266533
-0.40946040 0.76625377 0.39125988
-0.15596525 1.23478734 -0.44593760
-0.13290198 0.60237831 0.63532710
-0.07820517 0.56784821 0.63645858
-0.35191926 0.85942471 -0.25205734
-0.38467658 0.88166219 0.59774184
0.05055711 0.67723548 0.62706566
0.99506718 1.53502631 -0.50297004
-0.29544550 1.92273700 -0.50903076
-0.07667825 0.38597679 -0.10162295
-0.12736127 0.75159603 0.65915245
-0.19692825 0.74626172 0.62725127
0.39867118 0.85391337 -0.13728696
0.22937030 0.91364825 0.68419790
0.28950378 0.91214484 0.63979262
0.37840748 -0.01482684 0.47372785
-0.57412630 0.27896175 0.44420075
0.93926096 1.09816718 -0.00583613
-0.64049530 0.99908632 0.21237284
0.46193117 0.21004543 0.46297175
0.43016407 1.48348272 0.10883962
0.69284928 -0.01106124 0.15407263
0.21697538 1.28157723 -0.44600528
-0.45405886 1.01861370 0.54722911
-0.49682626 1.02208507 0.50558168
-0.52015567 1.01685750 0.49194044
0.68714756 -0.44212425 0.19987753
-0.96883947 1.37654042 -0.64794886
-0.30214518 0.60920805 0.55538970
-0.74065864 1.10747206 0.19398820
-0.58014029 1.11935663 0.40217596
0.74402058 1.17123711 0.19705361
0.05687655 0.07577921 0.30080661
-0.32071111 0.63824809 0.53181106
0.90283757 1.04630125 0.05705154
-0.41475651 -0.55908400 0.20359455
-0.39437887 1.54839742 -0.00093092
-0.71804124 -0.12766974 0.32109782
-0.51974243 0.20813733 0.50571716
0.33009046 1.51234055 -0.09798145
-0.39770281 0.57607543 0.18735634
-0.37629378 0.70408010 0.41167104
0.27137011 1.81215143 -0.38619742
0.09527890 1.09571493 -0.77046776
0.09289191 1.09335482 -0.76616222
-0.69458205 -0.94550401 0.45660985
1.23579311 1.29793668 -0.35160345
1.21294332 1.38522744 -0.28575245
-0.42810294 0.53172135 0.30760625
-0.42163441 0.54152697 0.33171856
0.48638093 -0.01482317 -0.04880393
0.52283704 0.01554106 -0.04495298
-0.52302188 0.86959642 0.35584471
0.61028898 1.04898429 0.29459411
0.59611177 1.05660725 0.29744580
-0.46408412 1.48089790 0.05170635
0.51905364 1.08172822 0.35274717
0.53893101 1.11050200 0.34177235
-1.13557470 1.12877572 -0.64503747
-0.41964924 0.89534819 0.56124741
-0.44486627 0.89668447 0.52634704
0.43797502 -0.63784224 0.18254849
0.47918597 0.33024228 0.13097550
0.47246414 -0.52534187 0.54925781
0.43802056 -0.49794674 0.53214544
-0.26600590 0.54386306 0.00535270
-0.00994383 1.69591308 -0.35969439
-0.68214029 0.02131818 0.40750867
0.92139626 0.99757606 -0.33060539
0.92501622 1.12950814 0.01436056
0.36500379 1.51046467 -0.06863061
-0.33187786 0.56167960 0.52540368
-0.38009840 0.84821659 0.60761291
-1.05399132 1.02265584 -0.32622668
-0.23688832 0.76871926 0.60889614
0.29888597 -0.94216269 0.60582566
0.80301231 1.36472523 -0.26435050
-0.82298613 -0.59988129 0.33548063
0.24645381 1.29540360 -0.46876398
0.30312487 -1.03122628 0.41206878
-0.44801092 0.30752572 0.06084107
1.03015041 1.32888198 -0.06740694
-1.15074372 1.44610596 -0.41126141
-0.63443971 -1.04040051 0.11869028
0.19122392 0.91528171 -0.28794977
-0.55584997 -0.71252751 0.45289958
-0.68525314 -0.07684800 -0.04854127
-0.45547000 -0.76930207 0.30455163
-0.64354241 -0.75183183 0.46420723
0.33788922 -0.88479155 0.32473618
-0.13846800 1.33184743 -0.63614190
0.55507475 -0.38336769 0.02281957
0.38210636 0.04882094 -0.03871574
-0.95994139 1.23950791 -0.07087620
-0.14673537 1.72206509 -0.32887298
0.39814344 0.85399115 0.51348591
-0.38756779 1.50161827 -0.10749738
-0.14574668 0.18206738 0.03266757
0.35490912 0.51818854 0.35447514
0.36267713 0.50202817 0.33265755
0.33615568 -0.41569808 0.44998258
1.13025022 1.09227991 -0.30537635
1.14012301 1.67253447 -0.56795788
-1.11202610 1.08294201 -0.30733836
-0.62775111 -0.11094829 0.39138344
-0.23464713 1.27953625 -0.46561790
0.29299432 0.09020477 -0.00078197
1.20591164 1.38287771 -0.40787053
0.20713741 0.85587031 -0.27816579
1.19937098 1.37004030 -0.22609711
-0.16768558 1.09548366 -0.27422723
0.96945143 1.00508678 -0.16418950
0.36985576 0.65718400 0.30259255
0.36725068 0.66671026 0.31937587
-0.80758411 1.11388040 -0.45333537
-1.10909986 1.04683900 -0.37753591
-0.14342561 0.80998474 0.66960073
0.47076854 -0.11860254 0.42600015
-1.07687736 1.47585678 -0.88416517
-0.74479944 0.99232930 0.14641525
0.32825637 0.90448606 0.60251093
-0.57928628 1.41777217 0.13519551
0.71472806 0.94177371 0.16370955
0.28907365 0.55029190 0.09323827
-0.55872947 0.94999111 0.28586245
-0.54557180 0.90853560 0.31170684
-1.22107911 1.34936142 -0.49617106
-0.08670888 0.57823014 0.63680887
-0.21126758 0.63258457 0.60852617
-0.13506658 0.60669571 0.63491112
0.34649563 0.67569798 0.43448400
0.33660036 0.56404322 0.41079414
0.34416685 0.55272692 0.39116764
0.87965751 1.01959205 -0.33843040
-0.82216382 1.35201085 -0.49115530
-0.40936518 0.55577034 0.37711507
-0.58664328 1.20881033 0.43651712
-0.40075567 0.67255896 0.32516795
-0.40452743 0.66457176 0.28986010
-0.70206243 1.16599596 0.20347227
-0.52420080 0.87807435 0.06421141
0.09251738 0.49687836 -0.11894663
0.02720552 0.48543787 -0.13418539
0.44407463 0.88209796 0.46060702
-0.99202108 1.29042566 -0.67530924
0.09255673 0.77172822 -0.25294980
-0.45137501 0.87163746 0.49738118
-0.46001157 0.86870790 0.48035684
-0.48725247 -0.66560423 0.14598519
-0.34087169 0.79806423 0.52767724
1.05647182 1.29062629 -0.03030056
-1.21151006 1.18075061 -0.60034835
-0.27573407 -0.07904667 0.27541983
-0.69846594 0.12912896 0.38609523
-0.51349562 -0.56970018 0.07431719
0.06950109 0.58297414 0.64574587
0.10792800 0.61023819 0.64341873
-0.18410383 0.53855562 -0.06644082
1.09432960 1.44045961 -0.62761593
-0.05420111 1.30203581 -0.71815187
-0.34703481 0.73023719 0.48868144
-0.49266520 0.86589396 0.00356189
0.76908529 1.19144678 -0.21577762
0.77159911 1.21520495 -0.22208339
-0.53325468 0.21972525 0.01595774
-0.57501870 0.20365208 0.01274219
0.18056776 1.62518013 -0.26927859
-0.28471848 0.58451384 0.57171196
0.20178987 1.64612770 -0.14420368
-0.38742656 0.12888990 0.51412541
0.00646206 0.87817699 0.68592721
0.21427992 0.29916155 -0.01237387
-0.06624094 1.24450266 -0.82859051
0.48578918 1.26926374 0.43865716
0.49685550 1.19099939 0.48985884
0.49414244 1.14840662 0.49842519
0.49105972 1.15625584 0.50593221
0.45218104 1.09398103 0.53544086
0.44265825 1.07065201 0.53897870
-0.40871817 0.50410962 0.16572821
0.47701555 0.83684242 0.31335419
-0.84364325 1.32295513 -0.18510227
-0.46861431 -0.44526401 0.07431682
0.37277997 0.49479020 0.27054578
-0.86503148 1.41690874 -0.40695062
-0.71728772 0.97538424 0.14818151
0.20523959 0.36788785 0.54460639
-0.17469348 0.78366196 0.64948672
0.02452919 0.68593103 0.62562913
-0.09230290 0.74670619 0.66304713
-0.14633575 0.75958657 0.65148669
0.53167450 0.32318667 0.20338818
0.62646133 1.15413308 0.29064086
-0.40843585 0.57484043 0.22819245
0.53367591 1.25814772 -0.07112710
-1.09979045 1.11409473 -0.24713142
0.40077052 0.96365720 0.57875115
0.41280279 0.98274380 0.57364178
-0.99771088 1.42605186 -0.69510037
0.33088264 0.71396023 0.46311504
0.26713008 -1.03432131 0.42944166
0.18619224 1.28486383 -0.37621620
0.84326601 1.40173864 -0.24883980
-0.56581861 1.40781283 0.28737879
0.55125725 0.15678993 0.04055451
0.34836996 0.69075155 0.43454570
0.29267651 -0.39132392 0.28040856
0.24254705 1.29791021 -0.47620934
0.24804948 1.34016502 -0.46196830
0.23798215 1.38846064 -0.46804678
1.24477375 1.29065299 -0.17479819
-0.80429488 1.32648218 -0.15445220
0.97261059 1.46747780 -0.44894201
-0.51313657 0.89881390 -0.01517663
-0.50316072 0.87765121 0.01470699
0.28985310 0.76161432 0.50080693
-0.56850582 0.93484098 -0.05281064
0.29003805 0.54672706 0.52044523
-0.62745678 -1.02643716 0.11854415
-0.27553594 1.36443317 -0.46486807
0.45686039 1.09666348 -0.14469320
-0.36355397 -0.00457807 0.47185180
-0.93465400 1.01121533 -0.45175260
-0.12561700 1.55815554 -0.52740532
-0.07813341 1.54932094 -0.55692708
-0.30997878 0.55453610 0.55154103
-0.49844876 0.97698665 -0.15395357
0.30040571 -0.81377667 0.48739704
0.41179878 -0.72661084 0.60121739
0.17569558 1.19665039 -0.62925231
-0.10007312 0.79042947 0.67130953
-0.06766465 0.79014820 0.67580807
-0.81215334 0.98277920 0.05471877
0.29906875 -0.68844956 0.51455802
-1.06725836 1.40139472 -0.89489704
-0.66496795 -0.43669975 0.01372079
-0.69785416 -0.44775483 0.01382442
-0.60297388 0.94452643 0.17665641
0.89965367 1.46416605 -0.26551273
0.67696595 0.05386020 0.11699580
-1.13436568 1.55378127 -0.70376861
-0.67261064 0.19423945 0.41212562
0.92742473 1.36287189 -0.40063402
0.18464638 -0.03426528 0.23868608
-0.89896333 1.27894890 -0.05687892
0.31322682 0.69210631 -0.05847917
-0.20694213 0.51918483 -0.04388396
