-0.72502625 2.46488833 -0.24487194 -0.587470 0.437690 -0.680666
-1.28278172 2.05139828 0.69446898 0.105833 0.824916 0.555260
-1.31770420 1.86945820 -0.24954405 0.280115 -0.888279 -0.364000
-0.99023044 0.94552201 0.88168085 -0.013628 0.303533 0.952723
-1.45596886 1.25107253 0.97543848 0.012322 -0.822819 0.568170
-1.47830272 1.25224555 0.97813028 -0.055297 -0.798265 0.599762
1.03512251 -0.05582109 0.06729664 0.646975 -0.692377 -0.319434
-1.71481133 0.58866143 0.23056284 -0.847923 -0.521909 -0.092943
-1.46100163 2.16781497 -0.67494845 -0.961495 -0.207071 -0.180692
-0.43571639 0.93196666 0.91220003 -0.307692 0.610551 0.729762
0.44353503 1.45978534 0.54939878 0.429354 0.815613 0.387855
0.20631051 1.06152725 -0.41516933 -0.096757 0.455741 -0.884838
-1.39329779 -0.17585438 0.16826415 -0.636197 0.481764 0.602625
-1.07043481 0.15388899 0.42481554 -0.459141 -0.797455 0.391478
-1.11692190 0.21048461 0.50186926 -0.261585 -0.872455 0.412791
0.38369760 1.24658811 -0.30470657 0.347639 0.353764 -0.868331
-0.90194958 0.28763211 -0.27843237 -0.168540 -0.407666 -0.897442
0.85760790 0.11344101 0.64299142 -0.105065 0.181701 0.977725
0.81684357 0.13459156 0.63121426 -0.234146 0.320335 0.917911
0.58033568 0.27230030 -0.40286806 0.586047 0.075943 -0.806710
-0.66769761 -0.32528222 0.26360282 -0.056089 -0.997954 0.030690
-0.29022995 1.29180801 0.78401959 -0.259341 0.507811 0.821505
-0.16253312 -0.26011103 -0.50708795 0.115782 -0.302098 -0.946219
-1.19039297 1.33037603 -0.25358117 -0.327568 0.582523 -0.743886
-0.24263892 -0.20310028 1.00884211 0.344063 0.006302 0.938926
-1.67387962 0.56149268 0.41140267 -0.777179 -0.554674 0.297203
0.13830218 0.60163659 -0.67678601 0.193885 0.133058 -0.971959
-1.42061305 0.58956182 -0.30458164 -0.503946 -0.362262 -0.784095
0.74689341 -0.02096263 0.63458252 -0.221689 -0.121737 0.967488
-1.29321432 1.85787463 -0.18691085 0.538506 -0.748016 -0.387921
-0.89362556 -0.32693046 -0.32551089 -0.029192 -0.999569 0.003020
-0.18527985 0.98481309 0.99251401 -0.173881 0.881094 0.439816
-0.22579518 1.00388420 0.91805148 -0.228339 0.857405 0.461214
-0.62632847 -0.30562097 0.85299253 -0.020298 -0.996748 0.077988
-0.17800768 2.49906659 -0.55992174 0.915987 -0.068800 -0.395264
-1.09307635 -0.33122730 -0.05327538 0.009025 -0.999814 0.017048
0.77352244 1.07032037 -0.07028319 0.753273 0.576599 -0.316407
-0.97320485 -0.20863900 0.90391344 0.300264 0.248544 0.920906
0.07622115 1.31174362 -0.37178022 0.058022 0.570310 -0.819378
1.12645888 -0.00710740 0.25809664 0.776604 -0.629866 -0.012459
1.11891282 -0.01620104 0.25772294 0.757919 -0.652228 -0.012516
-0.52257800 -0.24064341 0.46397147 0.105691 -0.992136 0.067052
-0.52212095 1.45428073 0.48116934 -0.305517 0.886450 0.347657
-0.43741873 0.25151625 0.91286993 -0.837365 -0.162119 0.522052
-0.97815430 0.89820939 -0.44023836 -0.005534 -0.136148 -0.990673
0.37863430 0.85808969 -0.48844346 0.297487 0.423881 -0.855469
-0.54636288 0.45874122 -0.70663220 -0.601285 -0.274465 -0.750417
-0.54841882 0.44771895 -0.70064676 -0.630131 -0.319115 -0.707885
-1.43033922 1.64764631 1.00450230 0.504503 0.279585 0.816889
-1.49507225 2.11143780 0.18211393 -0.127290 0.986198 -0.105877
-1.48502767 2.11201501 0.17351958 -0.113293 0.989268 -0.092269
0.59635228 0.18756637 -0.37115574 0.667229 -0.373977 -0.644164
-0.21757992 1.58870029 0.10439064 -0.211560 0.968048 -0.134629
-1.10379016 0.69073254 -0.42983559 -0.055633 0.019944 -0.998252
-0.17169592 -0.26797801 -0.32954213 -0.139081 -0.516796 0.844735
-1.31748044 2.18797731 -0.24674696 0.682786 0.640214 0.352036
0.54767776 0.86785907 0.89236104 0.575462 0.217534 0.788367
-1.16783321 -0.11376063 0.28502801 -0.358127 0.766490 0.533140
-0.61946785 -0.03823613 -0.47488776 -0.328908 0.829352 -0.451658
-0.21125880 0.96010995 -0.56523067 -0.057256 0.920098 -0.387480
0.67688733 -0.21600464 0.49754465 0.245462 -0.852258 0.461957
-0.61364007 0.02739890 0.77813852 -0.344384 0.846157 0.406716
-0.59935331 0.02986822 0.78335965 -0.332039 0.857124 0.393814
-0.35575464 0.91760796 1.02477694 -0.373341 0.783855 0.496172
-1.69812000 0.76091355 0.55644524 -0.802353 -0.217143 0.555949
-0.52696830 1.51024354 0.32074353 -0.149334 0.971312 0.185073
-0.51119000 1.50177741 0.36469239 -0.199934 0.932559 0.300600
-1.20164120 -0.33041736 0.08215259 -0.010987 -0.999855 0.012985
-1.37088978 0.38660428 -0.15352684 -0.521681 -0.682714 -0.511616
0.84000927 0.81597382 0.55993968 0.890012 0.108264 0.442897
0.71918011 0.30160835 -0.27441770 0.707944 -0.290562 -0.643731
0.65036863 0.80689132 0.84373468 0.566432 0.217621 0.794856
-0.88644505 1.43732500 0.52627796 0.079834 0.738825 0.669152
-1.66909099 1.98039722 0.07293271 -0.750982 0.082797 -0.655112
-1.64629567 1.99838567 0.05299874 -0.685276 0.279542 -0.672497
-0.59332788 -0.06297378 -0.52491564 -0.116859 0.773639 -0.622757
0.50158221 0.93562132 0.89916688 0.565502 0.378640 0.732693
-0.77419561 -0.32714164 0.13988018 -0.052533 -0.993652 0.099477
-1.08334851 1.21364748 0.74204135 -0.004115 0.596698 0.802456
-0.74076438 1.31852138 0.64801073 0.096368 0.545129 0.832795
-0.79039460 1.36659563 0.62284338 0.020896 0.633858 0.773167
-0.78362411 1.35256386 0.63288885 0.101068 0.616661 0.780714
-1.21537447 2.11627984 0.43371046 0.204850 0.974588 0.090631
-0.71559298 2.02721643 -0.05491575 0.442428 -0.889097 -0.117321
-0.18851982 0.75953037 1.14303231 -0.150839 0.100157 0.983471
-1.09063923 1.15007174 0.79271823 0.045636 0.510294 0.858788
0.60045516 0.56349802 -0.42319754 0.584988 0.157902 -0.795523
0.13783866 0.37313238 1.10863030 0.126903 -0.156473 0.979496
-1.11976016 0.45557633 -0.33769825 0.074898 -0.527112 -0.846489
-1.67476034 1.26393712 0.92387074 -0.193031 -0.718076 0.668660
-0.33562073 1.53068328 0.47988886 -0.361264 0.854319 0.373668
-0.42767993 1.50235724 0.44285277 -0.413969 0.823180 0.388592
0.55738205 -0.28302124 0.04772754 0.237076 -0.918131 -0.317538
0.57741916 -0.27091640 0.03223773 0.246674 -0.896593 -0.367795
-0.73859060 -0.30672565 0.50047529 -0.352384 -0.893599 -0.278041
-0.63379240 -0.26353961 0.58880031 0.585884 -0.773367 0.242165
-1.09333634 -0.31372979 0.58878303 0.013507 -0.998504 0.052990
-1.18887818 -0.31387869 0.61947161 0.025883 -0.999081 0.034165
-0.50736070 -0.22843236 0.65445495 0.052218 -0.994369 0.092215
-0.61669117 -0.23712775 0.63764167 0.286789 -0.953800 0.089540
-1.49824870 0.39359275 0.52259088 -0.606074 -0.728905 0.318391
-1.80390787 1.97695541 0.24660857 -0.860542 0.266540 -0.434079
-1.12979603 -0.09003847 0.86795223 -0.107687 0.736104 0.668247
-1.30952144 2.13017941 -1.05446172 0.613154 -0.719930 -0.325182
0.06937788 0.50234175 1.12751937 -0.029133 0.001005 0.999575
0.91835988 0.74251044 0.15428145 0.996386 0.057841 -0.062206
-0.21996519 0.90954041 1.08231127 -0.230369 0.700511 0.675437
-0.96223319 1.72871101 0.20945579 0.943177 0.317046 -0.099491
-1.49683118 1.02794170 0.74228257 -0.543876 0.223405 0.808881
-1.32043254 -0.12759362 -0.01283312 -0.508277 0.748433 -0.426031
-0.96318156 1.68656635 0.10928185 0.883164 0.418652 -0.211545
0.80530787 0.69409364 -0.23462717 0.870897 -0.042516 -0.489623
0.74690950 1.05820179 -0.15102068 0.816777 0.425106 -0.390078
-0.83986562 2.00404644 0.10163955 0.628315 -0.409482 0.661471
-1.49800348 0.32235160 0.19259794 -0.736970 -0.674491 0.044019
-1.35245061 1.73364365 -0.16367957 0.044087 0.123218 -0.991400
-1.22645235 2.03596187 0.69689429 0.287283 0.682097 0.672467
-0.72115171 2.29597974 -0.03576655 0.719117 -0.044144 0.693485
0.91569674 0.63111097 0.39128342 0.987296 0.109962 0.114692
-0.06708115 1.30442250 0.81653643 -0.102951 0.455523 0.884251
0.92812687 0.60062075 0.21624793 0.999159 0.037995 0.015403
0.92745227 0.56988084 0.27428427 0.996671 0.059779 0.055431
0.92691642 0.56672966 0.29090351 0.996770 0.048702 0.063854
0.59716433 -0.30110875 0.20589250 0.157570 -0.987361 -0.017004
0.66873616 -0.26252541 0.07888929 0.297397 -0.915402 -0.271284
0.75651193 0.35744077 -0.25670332 0.742514 -0.117083 -0.659518
-0.63510340 -0.00865405 -0.38647655 -0.453962 0.820928 -0.346403
0.21289469 0.29827344 -0.62239581 0.340228 0.003766 -0.940335
0.55723888 0.69261974 0.90843314 0.794638 0.043754 0.605505
-0.50941020 2.52334237 -0.38556930 -0.577865 0.131534 -0.805463
-1.17760623 0.15790913 0.24146034 -0.237843 -0.969857 -0.052991
-1.14928746 2.08724213 0.52044630 0.298749 0.935153 0.190365
-0.40816551 1.41909277 0.63447744 -0.347265 0.770443 0.534626
-1.17983186 2.13244534 0.15417121 -0.454714 0.866193 0.207230
-1.15761697 2.14018464 0.16314475 -0.434442 0.826231 0.358612
-1.67967975 1.09324813 0.54009646 -0.791706 0.331077 0.513409
-1.43297040 1.09470069 0.75474340 -0.197016 0.243213 0.949754
0.57749730 1.04906154 0.77866143 0.538419 0.548546 0.639689
-0.18984382 1.57693160 0.48764452 -0.251237 0.920245 0.300049
-0.17237231 1.58103883 0.48773748 -0.208857 0.932149 0.295765
-1.36698020 1.82110012 0.89636642 0.606585 0.296090 0.737825
-0.87800843 2.02893257 -0.11991213 -0.159944 -0.548593 -0.820648
-1.24771261 2.23416805 -0.86415392 0.990378 -0.123078 -0.063265
-0.90238708 1.30599380 -0.31867212 0.032966 0.247858 -0.968235
-0.86928129 0.31005791 0.81303632 -0.427597 -0.078370 0.900566
-1.47544658 2.31234860 -0.81227475 -0.740988 -0.527399 -0.415676
-1.48020327 2.33185625 -0.82830131 -0.680390 -0.573400 -0.456379
-1.26745498 1.04269958 -0.35716930 -0.389628 0.115086 -0.913753
-1.27715075 2.35385346 -0.80486244 0.851110 0.505392 0.142096
-1.26757169 1.48520875 0.91975379 0.865424 0.156684 0.475910
-1.78924608 0.90393043 0.29430759 -0.999972 0.002961 0.006910
-1.78771555 0.89591426 0.33396518 -0.995622 0.062708 0.069309
0.88853508 0.82717925 -0.01081811 0.934197 0.222695 -0.278718
-1.22017229 1.38979089 -0.19439873 -0.243635 0.482673 -0.841230
-1.22206223 1.40952194 -0.18427341 -0.132404 0.328962 -0.935015
-0.33794808 2.45368218 -0.47028908 -0.469977 -0.421191 -0.775706
0.75962287 0.33932588 0.70969665 0.783043 -0.018081 0.621705
-1.80769658 1.70094609 0.44329542 -0.934355 0.320626 0.155497
-1.34645092 2.12943459 -0.09531215 0.643337 0.688941 0.333884
-0.88789475 0.93878204 -0.43729410 -0.065546 0.170419 -0.983189
0.14139438 1.63050747 0.19759160 0.097660 0.993440 -0.059494
0.22237915 0.60149664 -0.63685948 0.388324 0.091290 -0.916990
0.94791549 -0.03669074 0.56223053 0.528998 -0.589841 0.610122
-0.48022968 0.04631027 0.83552563 -0.647129 0.443125 0.620374
-0.37495965 2.63367391 -0.34295177 0.781647 -0.107055 0.614465
-0.37771887 2.65700960 -0.33238214 0.820648 -0.159944 0.548593
-1.82721758 1.58310783 0.68554229 -0.941064 0.333591 0.055815
-1.82085407 1.59757710 0.71782601 -0.933685 0.356121 0.037555
1.06332147 -0.06137392 0.18791664 0.653348 -0.738634 -0.166002
0.31022418 1.09740198 -0.38897955 0.095210 0.669398 -0.736778
-1.89078104 1.44534659 0.43456924 -0.993570 -0.097673 0.057257
0.81911945 1.10322165 0.11138320 0.884027 0.463324 -0.061868
-0.49834234 2.12876749 -0.08507926 0.451661 -0.856178 0.250923
-1.20989847 -0.32873204 0.12969376 -0.055519 -0.998299 0.017808
-0.95508111 -0.31620288 0.57686329 -0.015264 -0.978048 0.207821
-0.89474994 -0.30892894 0.64540875 -0.028066 -0.998944 0.036382
0.02204653 -0.06142563 -0.57545280 0.127001 -0.670862 -0.730627
0.39862850 -0.00332695 -0.47478306 0.294036 -0.637882 -0.711793
-1.15275443 1.63402843 0.74381256 0.484837 0.422804 0.765618
-1.66480696 0.54995555 0.04676255 -0.866187 -0.329611 -0.375603
-0.43360981 2.65490294 -0.40767476 -0.732495 0.345946 -0.586321
-1.72644877 1.08958089 0.11048399 -0.940418 0.200236 -0.274807
-1.78618419 1.73194265 0.77141070 -0.937837 0.209798 0.276488
-1.82072091 1.99682307 0.34288365 -0.892030 0.450724 -0.033636
0.65372449 1.22556698 -0.13453989 0.693206 0.522828 -0.496102
0.86680758 0.75484389 0.52433616 0.899235 0.177538 0.399821
-1.05591094 0.17317981 -0.16684923 -0.592297 -0.274712 -0.757442
-1.05367315 0.13316174 -0.15586227 -0.617245 -0.240302 -0.749175
-1.30713224 0.29633403 0.56797862 -0.373290 -0.833209 0.407942
-0.43884036 0.60993338 -0.77667707 -0.250741 0.020592 -0.967835
-1.50624001 1.16886544 0.75874060 -0.136857 -0.828498 0.543012
-1.50256276 0.84560871 0.79047614 -0.615595 0.070313 0.784920
-1.43246162 0.26350808 0.16556391 -0.622250 -0.771471 -0.132806
0.48116735 -0.12383200 -0.21736078 0.617230 -0.743518 -0.257311
-0.99543476 1.80474460 0.30467638 0.937463 0.308827 0.160590
0.59215134 1.39964736 0.12943920 0.652763 0.747927 -0.120441
0.52104610 1.36643529 -0.10406724 0.540050 0.651088 -0.533320
-1.39359045 2.29166770 -0.32799336 0.289528 0.862456 0.415143
-0.67874533 -0.16928272 0.97749108 -0.772156 0.322668 0.547412
-0.67472786 -0.15499289 0.97411311 -0.739501 0.416690 0.528685
0.06637552 -0.31664279 0.21668380 0.054951 -0.998446 -0.009331
-0.31852621 2.63510418 -0.53057331 -0.660102 0.058708 -0.748879
-0.19427197 0.30292362 1.11079264 -0.271288 0.116641 0.955405
-1.54954910 1.66793668 1.04022622 -0.014361 0.408639 0.912583
-0.83549070 -0.11320058 0.83641040 0.077445 0.403531 0.911682
-1.71222484 1.24130380 0.07186847 -0.694463 -0.500348 -0.517082
1.08027220 0.05214231 0.50681412 0.666345 -0.511927 0.542139
1.08891439 0.07660566 0.51654023 0.722146 -0.414780 0.553590
-1.65057981 1.36581087 -0.06266378 -0.459041 -0.311772 -0.831913
0.89011765 -0.09777987 -0.02829993 0.352435 -0.751969 -0.557074
-0.41899201 2.54717445 -0.30220139 0.657029 0.004150 0.753854
-1.40054905 2.43758702 -0.71143973 0.349593 0.909522 0.224842
-1.41333175 0.45212415 -0.20802017 -0.493290 -0.697294 -0.520044
0.58354485 -0.30166891 0.27377313 0.147323 -0.986472 0.071893
-1.44427180 0.43781692 -0.15579383 -0.340413 -0.685712 -0.643364
-1.44051337 0.45104897 -0.17553288 -0.445171 -0.671925 -0.591894
-1.53035581 2.06525826 -0.24649814 -0.868736 -0.483582 -0.106987
0.70053780 0.18524265 -0.25702432 0.755678 -0.330307 -0.565550
0.68550014 0.17721060 -0.27169526 0.738908 -0.360483 -0.569269
-1.40560460 1.83699489 0.91324151 0.386881 0.451093 0.804262
-1.41911066 1.83357310 0.92080414 0.330305 0.472541 0.817070
-0.96834064 1.44423079 -0.22964120 -0.089117 0.691022 -0.717319
-1.56035101 0.93144566 -0.21612853 -0.692583 0.297281 -0.657231
-0.81579530 -0.31073546 -0.20103461 0.504406 -0.853274 0.132279
-1.05189240 -0.01558294 0.71063876 -0.411594 0.900981 0.137198
-1.04714322 -0.01430203 0.69860119 -0.377482 0.903932 0.201034
-1.36773944 2.56604910 -1.17325354 -0.635807 -0.152533 -0.756626
-0.72460735 -0.05740196 -0.42617589 -0.290075 0.924524 -0.247207
-0.88227594 1.13349032 0.80686164 0.073873 0.475296 0.876719
-1.45914125 0.47119457 -0.18295100 -0.485444 -0.626542 -0.609745
-1.47060192 0.51146871 -0.20965149 -0.632904 -0.481813 -0.606043
0.41111389 -0.00738743 0.83857614 0.494836 -0.471666 0.729841
-1.02903318 1.05836117 0.82433689 -0.001302 0.425734 0.904847
-1.00796294 1.05718613 0.82445264 0.037241 0.528267 0.848261
0.05122137 -0.08500001 -0.54422182 0.139731 -0.704663 -0.695648
-1.08194613 -0.04797049 -0.12591004 -0.560749 0.308332 -0.768434
-1.05774653 -0.05529114 -0.14321624 -0.480661 0.264286 -0.836133
-0.72188067 1.45049453 -0.16900752 0.351433 0.662002 -0.662002
-1.75905836 0.76060349 0.08159976 -0.942031 -0.047812 -0.332101
-0.22626235 1.46040070 0.67119545 -0.198379 0.764298 0.613591
0.21792714 1.43813980 -0.23683374 0.205432 0.767668 -0.607029
-1.23433876 2.12281895 -0.57623565 0.991061 -0.132364 -0.016685
-1.23819220 2.08478522 -0.52305818 0.981256 -0.189655 -0.034161
-1.32560992 1.67136478 0.87893909 0.851473 0.209477 0.480743
0.67001742 -0.26605654 0.09298190 0.306287 -0.918860 -0.248768
0.70187056 -0.23875675 0.03837281 0.287423 -0.895032 -0.341036
0.69295895 1.01351750 -0.24648704 0.679882 0.213144 -0.701663
-1.27565563 2.08812714 -0.18803503 0.850850 0.423100 0.311513
-0.69565225 0.97252154 -0.45449784 -0.120678 0.177907 -0.976620
-0.74717081 2.28884196 -0.27217871 -0.476427 -0.017447 -0.879041
-1.12980592 2.07303190 -0.02429631 -0.527929 0.152316 -0.835518
-0.05497217 0.10378978 1.08820248 -0.289234 0.086900 0.953306
-0.05171423 0.09378251 1.09026313 -0.296724 0.021106 0.954730
-1.24651623 2.10128951 0.10502953 -0.219803 0.957810 -0.185168
-1.20010328 2.12362528 0.10653761 -0.574460 0.817662 -0.037738
0.47869819 0.33683160 -0.49825779 0.732958 -0.202997 -0.649280
-1.37757814 2.62513089 -1.13835657 -0.010287 0.984127 -0.177166
-0.66517711 0.11445098 0.75508016 0.365978 -0.150037 0.918449
-0.97032565 0.51470721 0.85911876 0.194784 -0.414465 0.888976
-0.81194299 1.17847407 -0.38676107 -0.063807 0.419495 -0.905512
-1.32405543 0.47498578 -0.30011755 -0.409145 -0.611233 -0.677491
-0.52068615 2.19222450 -0.25914609 0.101755 -0.703437 -0.703437
-0.51801866 2.18842244 -0.25445449 0.114319 -0.720061 -0.684429
-0.78061026 0.24968179 -0.25827014 -0.047579 -0.452678 -0.890404
0.35221070 -0.31138405 -0.00427864 0.114504 -0.991993 -0.053284
-1.43106472 -0.30952209 0.09172540 -0.623822 -0.781506 0.009682
-1.00916851 2.29428959 0.04578410 -0.551722 0.785689 0.279813
-1.34337127 -0.21087894 0.25073847 -0.747891 0.498046 0.438872
-0.93715096 1.61497307 0.05600566 0.735945 0.579984 -0.349290
-0.46565482 0.11163788 -0.60415936 -0.532343 -0.416975 -0.736711
-1.45161653 2.42799425 -0.64318752 0.008568 0.958429 0.285203
-1.61045384 2.03459811 0.65361059 -0.353116 0.836494 0.419031
-1.58928144 2.04398751 0.65109318 -0.292295 0.864643 0.408601
-1.06758106 1.99893594 0.47338828 0.965065 0.111502 0.237101
-1.01268494 1.33151019 0.66020745 0.344384 0.406716 0.846157
-1.43021476 -0.22956638 0.08461756 -0.906399 0.415717 -0.074965
-1.47985566 2.45626521 -0.97729123 -0.542401 -0.626887 -0.559298
-1.49098408 2.44799781 -0.95874298 -0.513387 -0.637947 -0.573984
-1.54612935 2.46930766 -0.94697821 -0.514379 -0.639179 -0.571720
-0.92483920 -0.32766148 0.04876413 -0.001016 -0.999131 -0.041673
-0.55559868 -0.23202318 -0.17124048 0.038851 -0.998569 -0.036751
0.78152579 0.57826012 -0.22067346 0.808924 -0.304332 -0.503015
-1.19757760 1.77872288 -0.11870980 0.305489 0.323371 -0.895605
0.69567209 0.85825562 0.78297544 0.711939 0.261626 0.651686
0.70380425 0.90268308 0.75239700 0.722236 0.321532 0.612366
-0.86496931 -0.32897273 0.09564053 0.030935 -0.997401 0.065071
0.23799023 -0.25787318 0.89298940 0.189327 -0.229609 0.954691
-1.24012911 0.33072785 0.67096847 -0.277175 -0.774507 0.568606
0.80195254 -0.07180198 -0.09638857 0.248970 -0.462810 -0.850776
-1.07434118 -0.09788783 0.43209100 -0.611890 0.635360 -0.471072
-0.05465313 0.59263128 1.15908146 0.033575 0.282277 0.958745
0.94397658 -0.14828326 0.14475137 0.526566 -0.833854 -0.165577
0.95494294 -0.13855828 0.12638184 0.527547 -0.826844 -0.194996
-1.50928760 1.25342071 0.97003722 -0.257010 -0.805297 0.534269
-1.37657011 2.33259273 -1.05860305 -0.905248 -0.092316 -0.414733
0.15108187 1.59785771 0.48175111 0.090535 0.948650 0.303096
-0.00971599 0.61903095 -0.72496706 0.336353 -0.178732 -0.924620
-0.52233481 1.41729951 0.55918127 -0.296177 0.845114 0.445041
-1.24310541 2.21748900 -0.78446615 0.987880 -0.090664 -0.125987
0.09553408 0.04709006 -0.59398729 0.043050 -0.247228 -0.968001
-0.24075975 -0.22259137 -0.16919103 0.019474 -0.999305 -0.031773
-0.03902247 -0.22081570 -0.03774998 0.030206 -0.998879 -0.036455
-1.04437613 0.18738204 0.57832366 -0.910581 -0.245436 0.332572
-0.57783031 -0.23358424 -0.00773864 -0.011074 -0.999715 -0.021142
-1.01035261 1.60957026 -0.04800296 0.678598 0.248345 -0.691252
-0.40778115 0.52245730 1.08763802 -0.470333 -0.377229 0.797800
-0.65311754 0.72327977 -0.51482499 -0.766837 0.175321 -0.617433
-0.63370270 1.52429008 0.15154758 0.328631 0.941021 -0.080508
-1.71611416 1.99105179 0.14031470 -0.803443 0.226691 -0.550536
-1.69749343 1.64026856 0.98126853 -0.631784 0.332945 0.699997
-0.79635191 2.23382902 0.03777372 0.741127 -0.038261 0.670274
-0.04764694 0.97625685 1.02104783 -0.051813 0.838818 0.541941
-0.06078815 0.96411264 1.03638554 -0.043680 0.793280 0.607289
-0.01084148 0.95648390 1.04871190 0.061840 0.743514 0.665855
-0.89898431 1.57029057 0.00480599 0.175773 0.954003 -0.242862
-1.46616006 2.03397012 -0.72373986 -0.973917 0.157898 -0.162951
0.69852364 0.79495776 -0.33766228 0.568104 0.280096 -0.773824
0.12891209 0.90702164 -0.58602846 0.384265 0.740731 -0.551052
0.13644408 0.89675361 -0.59254771 0.405685 0.697116 -0.591141
0.48956156 1.33421159 -0.17573765 0.648789 0.561161 -0.513976
0.17210594 -0.21340847 -0.46685851 0.146442 -0.044970 -0.988197
0.17267163 -0.23497829 -0.46758664 0.155924 -0.059791 -0.985958
1.05537701 0.04065299 0.52412152 0.625510 -0.531093 0.571557
0.51576281 1.45187283 0.09040456 0.599177 0.774772 -0.201780
-1.03389871 0.04876594 0.61263812 -0.927126 0.257772 0.272014
-0.81822294 1.06211805 0.81009769 0.314362 0.296652 0.901762
-1.01777852 -0.33020502 -0.13034382 0.025523 -0.999486 0.019398
0.32176280 -0.28078651 0.84776294 0.361931 -0.786598 0.500270
-1.25174272 0.60002691 0.85923278 0.035541 -0.396211 0.917471
-0.37266928 2.42494273 -0.30702245 0.456130 0.379308 0.805029
0.06350122 -0.25663793 -0.48751301 0.170308 -0.223117 -0.959799
-0.00367066 -0.32154357 -0.42130965 0.024923 -0.995829 -0.087772
-1.20167112 1.25167334 0.72492862 0.159645 0.127469 0.978910
-0.56905681 2.22899747 -0.04413499 0.096961 0.814759 0.571634
0.40020064 -0.11487893 -0.42603546 0.755039 -0.136056 -0.641409
0.18192422 -0.02850150 -0.55228931 0.075522 -0.560002 -0.825042
1.06887364 0.10320114 0.55437106 0.658458 -0.326790 0.677968
-0.59980643 -0.30842519 -0.60095280 0.161455 -0.452366 -0.877096
-1.36072314 0.35207629 0.62072593 -0.434849 -0.773609 0.460908
0.54826027 0.15065557 0.84539366 0.614319 -0.358762 0.702781
-1.27691901 1.15520251 -0.30132794 -0.575531 0.306202 -0.758290
-0.89968044 -0.20773192 -0.41318312 -0.873174 0.411704 -0.260897
-1.17277956 2.05459237 -0.00511604 -0.399163 0.337037 -0.852687
-1.12365627 2.05472684 -0.02997417 -0.491255 0.113146 -0.863635
-0.49177441 0.02311362 -0.55086583 -0.546797 -0.233899 -0.803931
-0.47929209 0.01424671 -0.55622202 -0.524382 -0.245949 -0.815189
0.01812012 1.33497334 0.79908317 0.116424 0.490131 0.863838
0.05936824 1.33088839 0.79586226 0.141655 0.495063 0.857232
0.03219431 1.33422148 0.79751682 0.116136 0.488917 0.864565
-1.45433414 1.99248576 -0.75090426 -0.754375 -0.613809 -0.232716
-0.35053995 -0.05366065 0.99607277 0.275148 0.733197 0.621865
-0.39911425 -0.16000687 -0.57050121 0.213934 0.096333 -0.972086
-0.17905460 -0.22848393 0.07804573 0.017218 -0.999667 -0.019244
-0.18371359 -0.22949341 0.09977843 0.027898 -0.999162 -0.029965
-0.66632271 0.32551998 0.80381608 0.464428 -0.204587 0.861656
-1.32389033 -0.24920188 0.75251704 -0.939870 0.140096 0.311476
-0.05467297 0.93032306 1.07352996 -0.018104 0.647583 0.761780
0.50003242 0.96057111 -0.40638211 0.459041 0.311772 -0.831913
-1.82642138 1.88390517 0.46851757 -0.984462 -0.175594 -0.001133
0.31039208 1.48015845 0.60444760 0.496330 0.654483 0.570359
-1.25177217 -0.07112174 0.04011856 -0.374855 0.888599 -0.264340
-1.74700582 0.87547231 0.10205410 -0.952907 -0.018684 -0.302688
-1.12882698 1.15902209 0.78501898 -0.043547 0.580155 0.813341
-0.83813184 2.37496734 -0.19611311 -0.617632 0.340594 -0.708891
0.79741246 0.95622945 -0.12349740 0.826321 0.211526 -0.521967
0.33278891 1.20357370 -0.33635181 0.383784 0.278432 -0.880446
-1.12389052 0.16719252 0.40922326 -0.336391 -0.903409 0.265881
-0.17848670 1.40819359 -0.26109919 -0.111161 0.718839 -0.686232
-1.09638262 0.97694045 -0.42526537 -0.418819 0.198388 -0.886133
-1.04242015 0.69264609 -0.43237710 -0.052990 -0.013507 -0.998504
-0.87820500 0.49077624 0.85111290 -0.177038 -0.055844 0.982619
0.23996925 0.71933013 1.08320010 0.533712 -0.075031 0.842331
0.20740180 0.66835147 1.09610033 0.473616 -0.131000 0.870935
-0.02630734 1.04114151 -0.45664129 0.089293 0.227634 -0.969644
-0.48289183 0.45553863 -0.75030631 -0.515204 -0.224733 -0.827079
0.96933836 -0.00010836 0.57349199 0.597346 -0.486290 0.637730
0.88372415 0.58381444 0.50421989 0.912108 -0.017012 0.409598
-1.30182540 2.10858703 0.16541268 0.019138 0.989542 -0.142971
0.26997989 -0.07816794 -0.49862561 0.254240 -0.274125 -0.927479
0.59939432 0.93458593 0.83169353 0.551990 0.333125 0.764418
0.52440661 -0.30255857 0.33818579 0.128575 -0.987312 0.093187
-0.89541703 2.33520770 0.07356136 -0.169251 0.648032 0.742569
0.85996050 0.53703797 0.55148345 0.872663 0.014791 0.488099
-1.07178450 1.82179427 0.54526693 0.866143 0.216910 0.450274
0.00707780 -0.24873196 -0.29309225 -0.165245 -0.629144 0.759521
-1.61509633 1.62815177 -0.08696492 -0.440056 0.246492 -0.863477
0.00774116 1.63053095 0.26511866 -0.088983 0.995963 -0.011793
-0.50617629 2.41495705 -0.22564125 0.548815 0.193074 0.813341
-1.49830604 0.64441663 -0.27058303 -0.711656 -0.411143 -0.569655
-1.48221397 0.62339121 -0.27225402 -0.689507 -0.420350 -0.589819
-0.58656311 -0.19980805 -0.59585524 0.213906 0.032265 -0.976321
-0.57697499 -0.19121665 -0.59339297 0.190502 0.039047 -0.980910
-0.40235734 -0.20995297 1.06628489 0.302991 0.041836 0.952075
0.35377580 1.54117727 0.43487766 0.447569 0.860242 0.244266
-1.47813857 0.48361182 -0.18176855 -0.490516 -0.547436 -0.678017
0.60469335 1.37873781 0.07978077 0.614099 0.769528 -0.175239
-1.38468587 1.75329173 0.93513674 0.631739 0.244188 0.735716
-0.24695782 1.38936114 -0.26906186 -0.149267 0.737287 -0.658884
-0.19444427 -0.13411318 0.98790586 0.315201 0.297443 0.901208
-0.00749802 0.39122596 -0.68590039 0.201336 -0.284647 -0.937251
-0.90177786 -0.05746322 0.80736637 -0.109769 0.581044 0.806436
-0.64630151 -0.32010344 0.39755532 0.178573 -0.981552 0.068313
-0.18903053 -0.12353484 -0.53391176 0.004080 -0.564387 -0.825500
-0.20479803 -0.08694122 -0.57413769 -0.061877 -0.674886 -0.735323
0.73376662 0.06636751 0.63226658 0.242445 -0.090123 0.965970
0.03502737 0.82271528 -0.67218459 0.331348 0.295688 -0.895978
-1.71575642 2.02836609 0.55036306 -0.502637 0.796240 0.336687
-0.56923103 1.41991460 0.52572435 -0.100533 0.913058 0.395245
0.47177079 -0.12672077 0.80509335 0.643950 -0.026656 0.764603
-0.79753405 0.57519400 0.86073583 0.094960 0.003201 0.995476
-0.79716611 0.61321306 0.85765171 -0.226093 -0.039899 0.973288
0.05748307 1.05647349 -0.44088769 0.188397 0.152512 -0.970179
-0.45066461 -0.23461321 0.09219112 -0.021440 -0.999494 -0.023481
-0.42051029 -0.23522183 0.07212456 0.013063 -0.999801 -0.015072
-1.08960652 -0.32996207 0.20700204 0.066508 -0.997624 0.017947
-0.01419866 1.28260028 0.83108705 0.038814 0.426958 0.903438
-0.01725669 1.26481366 0.83883715 -0.001258 0.348502 0.937307
0.12062366 1.05103087 0.90085346 -0.323167 0.657701 0.680436
0.09672565 1.03837442 0.89835614 -0.304306 0.645644 0.700387
-1.40322006 2.11631417 0.04313863 0.186352 0.965641 0.181139
-0.02931778 0.00946988 1.05617881 -0.095502 -0.715531 0.692023
0.09072584 0.17395595 -0.62699157 0.499785 -0.167584 -0.849783
0.94958246 -0.11494517 0.04829465 0.512867 -0.766858 -0.385871
-1.40244484 1.83244193 -0.17518163 -0.170490 -0.798134 -0.577855
0.59943986 1.18940580 -0.21773715 0.580875 0.415384 -0.700029
-0.92468798 -0.32876757 -0.15950714 0.056785 -0.998382 -0.003097
-0.95288032 -0.32878405 -0.15574430 -0.000989 -0.999940 0.010880
-0.21778391 -0.21705772 0.70291787 0.047006 -0.995875 0.077615
-0.14673506 -0.21937479 0.66520476 0.003146 -0.997373 0.072365
-0.13550062 -0.22114989 0.63433254 0.019944 -0.998252 0.055633
-0.15174901 -0.22073083 0.64546615 0.003122 -0.997844 0.065552
-0.14102842 -0.22240180 0.61995268 0.019944 -0.998252 0.055633
-0.01442758 -0.22335297 0.52243936 0.046167 -0.997432 0.054757
-0.00313096 -0.22387640 0.50493586 0.009552 -0.996609 0.081724
1.19074237 0.11995331 0.25554320 0.937612 -0.347682 -0.001255
-1.29361057 -0.24252947 0.80899847 -0.856183 0.264028 0.444116
1.14414835 0.36771536 0.07583863 0.631916 0.527439 -0.567882
-1.15861773 -0.28734267 0.91722375 -0.133164 -0.671804 0.728661
-1.31332028 0.76760465 0.89117116 -0.301984 0.016156 0.953176
-0.42203403 1.45390832 0.56264466 -0.313897 0.868192 0.384332
-1.39156616 2.09359002 0.59897679 -0.044837 0.946699 0.318983
-1.31118464 1.57150829 -0.17622502 0.123096 0.001089 -0.992394
-1.56504190 2.35721493 -0.63750559 -0.852418 0.436228 0.288250
-0.35606557 2.58518076 -0.49604911 -0.649997 -0.070621 -0.756648
-1.02502453 0.25538406 -0.21400966 -0.525551 -0.155445 -0.836441
-0.99301130 0.26038793 -0.23582883 -0.517835 -0.149007 -0.842404
-1.42087531 1.33319223 -0.16023557 -0.226335 -0.052608 -0.972628
0.08054459 1.26638210 0.82240719 0.163463 0.339501 0.926293
-1.27570510 1.75563574 0.76758486 0.899854 -0.003929 0.436174
0.80622995 0.47419092 0.64537907 0.828995 -0.026208 0.558641
0.78991193 0.46062115 0.66800094 0.806583 -0.020753 0.590756
-1.53622901 1.57598186 -0.14791527 -0.443815 0.167340 -0.880355
0.56570679 -0.20933132 0.57144028 0.435477 -0.754278 0.491349
-0.24551904 -0.30550835 0.92020911 -0.008990 -0.999847 0.014983
-1.13071775 1.49110699 0.79414117 0.585930 0.132020 0.799535
-0.09051286 -0.12164889 0.94894707 0.283504 0.271991 0.919590
-0.73005664 1.16779208 0.75273383 -0.128577 0.422467 0.897212
-1.09782922 1.83089685 0.58423454 0.800761 0.079070 0.593742
0.18892738 -0.31453395 -0.37390178 0.049792 -0.994730 -0.089625
-0.99934852 -0.32924399 0.03562959 0.032158 -0.998965 -0.032158
-0.93061262 -0.32737067 -0.02546262 0.038227 -0.999076 0.019630
0.51064372 0.14176042 0.86726570 0.470333 -0.377229 0.797800
0.49724451 0.14401230 0.87567365 0.533891 -0.343561 0.772610
-1.57554853 0.39726299 0.21610680 -0.593734 -0.797967 -0.103575
-1.53615892 2.07984233 0.01390295 -0.615552 0.786144 -0.055442
-0.49154112 -0.23091984 0.60498953 0.063606 -0.994269 0.085924
-1.41043210 0.87570137 0.84088993 -0.254115 0.013248 0.967083
0.29856834 0.68639493 1.04224491 0.352063 0.208364 0.912489
-1.81735301 1.84086585 0.52180362 -0.963221 -0.266946 0.030754
-0.96592349 0.88759857 0.88884258 0.327985 -0.069256 0.942141
0.46574271 1.45132148 0.54165608 0.490102 0.781252 0.386582
-1.16529679 0.57588708 0.86978042 -0.284394 -0.214346 0.934439
0.03719079 0.80571389 1.11657882 0.170612 0.285263 0.943142
-1.59255159 0.44204822 0.39125386 -0.820446 -0.474000 0.319675
-0.32636172 2.64171267 -0.39962837 0.745088 0.047013 0.665308
-0.30456617 2.66192365 -0.42717996 0.789266 0.110233 0.604075
0.20667931 1.59053040 0.02024318 0.205972 0.921902 -0.328135
0.30970541 1.01021624 -0.44977453 0.118306 0.250914 -0.960753
-1.12378120 1.28279173 0.71366322 0.307907 -0.060551 0.949488
-1.11574888 1.27574182 0.71095085 0.261084 0.093888 0.960739
-1.53809023 0.61542845 0.71280414 -0.574755 -0.448142 0.684708
-1.22315204 2.37350059 -1.16421926 0.992648 -0.036931 0.115268
-1.29411125 0.94407970 -0.34930885 -0.264263 0.275691 -0.924207
-0.59415668 0.01910109 -0.40374604 -0.929564 0.310792 -0.198288
-1.72195983 1.21079326 0.42827180 -0.777862 -0.562406 0.280411
-1.01754618 -0.32896245 -0.22882806 -0.116571 -0.941947 -0.314876
-0.05494694 1.45984006 -0.20536146 0.142968 0.651633 -0.744939
-1.08046722 -0.12526825 0.36771977 -0.550330 0.791786 0.264974
-0.15146811 0.87082708 1.11585176 -0.062090 0.467746 0.881680
-0.31800517 2.70821309 -0.49984238 -0.282322 0.744883 -0.604520
0.61679065 0.36647728 0.82694000 0.465800 0.031053 0.884345
-0.49892405 -0.32714692 -0.47358489 0.013775 -0.997071 0.075231
-0.11685418 -0.01296736 1.01202238 -0.104379 -0.648325 0.754175
0.64394414 0.12120979 -0.27977106 0.723031 -0.406808 -0.558331
0.33279312 0.18742423 -0.56177098 0.345160 0.098042 -0.933409
0.86597967 0.86653060 0.48979148 0.926355 0.133914 0.352042
-0.49389344 -0.27426046 -0.38226286 -0.020393 -0.517983 0.855148
-0.49390936 0.96654230 0.89072502 -0.244495 -0.005963 0.969632
0.42812517 0.21932361 0.95463324 0.518224 0.068816 0.852472
-1.42905474 2.44519138 -1.02898085 -0.722810 -0.438317 -0.534251
0.49624002 -0.29508147 0.04379911 0.157508 -0.938202 -0.308169
-0.35662267 0.40571114 -0.76674551 -0.065646 -0.175453 -0.982297
-0.60572886 0.90653205 0.89884871 -0.133032 -0.063624 0.989067
0.83191538 -0.20254682 0.09325571 0.467048 -0.860980 -0.201443
-0.41760868 0.21726236 -0.68836015 -0.454458 -0.343615 -0.821825
-0.42725927 0.19546764 -0.67390156 -0.457939 -0.368585 -0.808973
0.93947321 -0.14969172 0.35424954 0.443103 -0.881847 0.161260
-0.89407343 -0.32599053 -0.05223421 0.025218 -0.999641 0.009078
-0.29003948 1.11714363 0.86333203 -0.251464 0.121172 0.960252
-1.52478421 1.51985383 1.05765665 -0.039089 -0.112798 0.992849
-0.50529540 0.84927976 -0.64116240 -0.515498 0.727664 -0.452511
0.82199210 1.07178462 0.33775288 0.925423 0.360572 0.116535
-0.87980705 0.16116685 -0.23804165 -0.030701 -0.264032 -0.964025
-1.80890977 1.27098584 0.19943085 -0.718571 -0.645603 -0.258559
-1.84170592 1.64956057 0.29061031 -0.904023 0.421332 -0.072267
-1.82800460 1.65133119 0.21503997 -0.906967 0.382560 -0.176235
1.10034668 0.04150207 0.47198933 0.672513 -0.514867 0.531637
1.09050775 0.01926243 0.45992237 0.648679 -0.564435 0.510519
-0.94857049 1.66721559 0.42359313 0.810453 0.538758 0.230014
-1.09309137 -0.12757680 0.90569019 0.006855 0.593606 0.804727
-0.51249123 -0.30014622 1.02205575 -0.036257 -0.983614 0.176606
-0.87742096 2.04267168 0.14691149 0.561934 -0.180243 0.807306
-0.90879995 2.07672858 0.16883320 0.526855 0.155830 0.835548
-0.05005391 -0.22008926 -0.07969853 0.034439 -0.998739 -0.036527
0.77871078 0.70222878 0.69230437 0.778783 0.070537 0.623315
-1.09156919 0.20183730 -0.14269257 -0.796380 -0.190339 -0.574064
-1.50273395 2.41756058 -0.91176218 -0.469334 -0.683123 -0.559526
-1.54427958 2.43141365 -0.90167701 -0.540810 -0.638526 -0.547549
-1.46143603 1.96518242 -0.55548543 -0.537144 -0.843303 -0.017768
-0.66514993 1.50116038 0.41229805 0.252147 0.871189 0.421251
-0.01137904 1.51299489 -0.14428224 0.058565 0.781337 -0.621356
-0.53379297 0.73854816 0.98883206 -0.840209 0.217269 0.496833
0.42318171 0.40256986 0.98305655 0.496205 -0.300873 0.814406
-1.76897812 0.82763237 0.14007251 -0.941465 0.165337 -0.293781
-0.91596746 0.52702105 0.84476781 0.084756 -0.077976 0.993346
-0.43052590 0.93936628 -0.49749261 -0.182946 0.674900 -0.714871
-0.41830871 1.54340267 0.14692265 -0.264803 0.960711 -0.083151
0.67589986 -0.25111428 0.40638897 0.263977 -0.926060 0.269685
-0.94304413 0.43020454 0.82192165 -0.389615 -0.349256 0.852186
-1.27247941 0.71568191 -0.38272437 -0.042613 0.023905 -0.998806
-1.79149425 0.93172854 0.26710808 -0.996490 -0.074656 -0.037869
-1.29397082 1.11009896 0.79634225 -0.219039 0.472823 0.853499
-0.53175515 1.11271226 0.82345235 -0.277518 0.440042 0.854018
-0.46495146 1.11498022 0.84398097 -0.164088 0.442894 0.881431
-0.43179485 1.09381270 0.85741359 0.019280 0.368883 0.929276
0.76483709 0.17725587 -0.13703066 0.864862 -0.364072 -0.345638
0.20274726 -0.31419441 -0.06254862 -0.052933 -0.997077 -0.055093
-1.23573363 1.79470587 0.71435356 0.701001 -0.315693 0.639481
-0.58409023 -0.12506285 -0.57894474 0.022845 0.469000 -0.882903
0.25177979 1.60419393 0.33063394 0.331295 0.942321 0.047696
-0.34793159 2.59249592 -0.37139434 0.699576 0.130328 0.702572
-0.75335068 -0.16515204 -0.55695796 -0.531595 0.445480 -0.720385
-0.76950514 -0.18572274 -0.55630052 -0.546152 0.420751 -0.724352
-1.04290783 1.07022858 0.81946200 0.076646 0.375162 0.923785
-1.06070185 -0.18360732 0.92899024 0.188513 0.311396 0.931394
0.50924033 -0.30704325 0.26914275 -0.131345 -0.990230 0.046827
-1.42093253 2.30782723 -0.93777359 -0.917678 -0.237703 -0.318378
-1.43779898 2.30778337 -0.89460903 -0.892751 -0.290628 -0.344283
-0.54335672 -0.30193448 0.94664782 0.013244 -0.999413 0.031582
-0.41303539 -0.10754859 -0.56046093 0.152133 0.187929 -0.970329
-0.46745434 -0.08582993 -0.55688632 -0.055416 0.315742 -0.947226
0.36014569 0.35188115 -0.58013344 0.308657 -0.130741 -0.942145
-0.88904184 0.64331704 0.85215420 0.363227 -0.262413 0.893983
-1.66119742 0.52838033 0.06628041 -0.831527 -0.472707 -0.291737
-0.80166924 -0.31398153 -0.25789478 0.455835 -0.875261 0.161654
-0.80922097 -0.31901675 -0.27186710 0.324534 -0.938591 0.117155
0.26379675 -0.04560804 0.91261536 0.451660 -0.571658 0.684990
-1.08118308 -0.03134289 0.77696574 -0.080951 0.935580 0.343710
0.52850401 0.43965575 0.88586217 0.595557 -0.260655 0.759849
-0.79094696 1.02044976 0.82150006 -0.066867 0.334337 0.940078
0.38722008 1.36778998 -0.21551464 0.372192 0.706672 -0.601737
-1.28433430 1.33697402 0.91707712 0.837736 -0.427480 0.339792
0.48079941 0.63103533 -0.50405419 0.469000 0.022845 -0.882903
0.37495533 -0.22122070 -0.35370246 0.757970 -0.540480 -0.365189
-1.24726462 1.55809093 0.84505403 0.687755 0.415967 0.594949
-1.21650398 1.52877462 0.83271497 0.572450 0.298184 0.763798
-0.27900210 1.55744135 0.46562073 -0.302512 0.910458 0.282052
0.68981820 0.06445117 -0.15509717 0.645353 -0.507183 -0.571213
-0.71161252 1.21859348 -0.37179226 0.095022 0.494963 -0.863703
-0.67925805 1.22577393 -0.36310771 0.110606 0.427024 -0.897450
0.23208514 0.50071234 -0.62456495 0.511727 0.065894 -0.856617
0.23114733 0.47070655 -0.62945974 0.423540 0.128904 -0.896659
-1.44644618 0.63838625 0.79260164 -0.496954 -0.293156 0.816760
-1.34253991 0.37480074 -0.16283897 -0.483144 -0.718905 -0.499747
-1.33557999 0.38061795 -0.17868389 -0.473517 -0.722736 -0.503423
-0.05567332 1.58662605 0.51462245 -0.056127 0.938502 0.340680
0.52157485 0.14577827 -0.44177625 0.746104 -0.323903 -0.581735
-0.22660324 -0.22209500 0.65349340 0.033541 -0.996481 0.076819
-0.22599842 -0.22468038 0.61120027 0.030878 -0.997679 0.060691
-0.21880309 -0.22530892 0.59697968 0.026349 -0.998091 0.055859
-0.75279099 2.31071591 -0.26804364 -0.504695 0.042631 -0.862244
0.58200139 0.83428836 -0.40097728 0.532050 0.271518 -0.801998
0.08927003 -0.27750885 0.47475260 -0.487967 -0.679130 0.548334
-1.39148581 0.76451510 -0.33728540 -0.267420 0.127782 -0.955070
-1.00259209 -0.17916210 -0.22231229 -0.179747 0.281283 -0.942640
-1.27034056 2.18852663 -0.34755406 0.802657 0.497488 0.329010
-1.18181014 -0.32785070 0.23599806 -0.015162 -0.999701 0.019206
-1.18356264 -0.32789391 0.20892803 -0.013063 -0.999801 0.015072
-0.41931868 0.34522781 -0.74226213 -0.368580 -0.374801 -0.850690
-1.48139668 2.03134298 0.72133029 -0.083816 0.850946 0.518523
-1.45454836 2.03806424 0.71502388 -0.077566 0.858866 0.506294
-0.62415153 2.56093645 -0.26227790 -0.608906 0.612279 -0.504329
-1.40812421 0.25549045 0.37113029 -0.513536 -0.826257 0.231475
0.07605445 -0.30249646 0.88506562 0.049121 -0.958488 0.280871
-1.25536764 2.00427699 -0.12372786 0.967666 0.248968 0.040473
0.37465534 0.61727065 1.04246604 0.477226 0.250122 0.842434
0.41755074 0.63711965 1.01332867 0.386166 0.117649 0.914896
-1.84376657 1.54861975 0.60880357 -0.972162 0.161815 0.169459
0.00915015 -0.21522823 0.63734275 0.030510 -0.998413 0.047343
0.02389868 -0.21667080 0.60079062 0.050765 -0.996942 0.059406
-0.41336221 1.43493414 0.60442209 -0.324359 0.811690 0.485748
-1.08548701 1.46374166 -0.16593461 -0.216526 0.671386 -0.708772
0.04812134 -0.28945768 0.03472567 -0.619657 -0.662850 -0.420303
-1.02621853 2.03284407 0.25545093 0.733790 0.398906 0.549932
-1.00345659 2.06271553 0.22511700 0.445041 0.296177 0.845114
0.78299534 0.36389536 -0.22161186 0.850419 -0.132741 -0.509085
-1.55331945 2.47977400 -0.95241863 -0.606077 -0.579066 -0.545301
0.13433430 1.47174513 0.68231541 -0.001381 0.661530 0.749918
0.12183482 1.44896352 0.69951957 -0.055111 0.572306 0.818186
-1.04281414 0.12340645 0.31508657 -0.594241 -0.796723 0.110045
-1.25422990 2.24111438 -0.97825944 0.973370 -0.228115 -0.022692
-1.25222611 2.24634147 -0.96144915 0.981576 -0.188810 -0.029318
-0.53401786 1.51620579 0.15350538 -0.150596 0.985398 -0.079448
-0.45384201 1.53669250 0.18766961 -0.264836 0.961772 -0.069694
-0.50406599 1.52233100 0.17319505 -0.209770 0.975247 -0.069923
-1.38670433 0.35677090 -0.09803642 -0.529309 -0.660375 -0.532669
-1.00040090 1.71563315 0.03188599 0.838353 0.349444 -0.418393
-0.71883392 0.24308437 0.81537616 0.365325 -0.222688 0.903852
-0.01663195 0.03622007 -0.61622077 0.212141 -0.052126 -0.975848
1.01444221 -0.06776422 0.45287755 0.601387 -0.684222 0.412521
-1.55391991 1.03700137 0.69611245 -0.671659 0.251280 0.696945
-1.21593690 0.32694203 -0.18419859 -0.171012 -0.794526 -0.582652
-1.22992527 0.35732341 -0.22650248 -0.227037 -0.798491 -0.557554
0.62980264 -0.28184825 0.10174751 0.286496 -0.930054 -0.230044
-1.35452068 1.90095878 -0.39183223 0.176108 -0.953133 -0.246013
0.93167025 -0.16184956 0.27569211 0.487521 -0.870871 0.062503
-0.64987272 2.41277075 -0.31650084 -0.461533 0.121456 -0.878770
-0.30427566 0.96200657 0.96408749 -0.304017 0.891083 0.336964
-1.52157938 2.27996445 -0.69852465 -0.544903 -0.720464 -0.428966
0.84706080 0.86737520 0.53124022 0.886953 0.145190 0.438445
-1.83533955 1.83765864 0.34296194 -0.982668 -0.112964 -0.146975
-0.77277046 -0.07143303 -0.41942999 -0.339893 0.901967 -0.266323
1.09528077 -0.03477652 0.19835335 0.697729 -0.706655 -0.117528
0.62762058 -0.23663664 0.48460671 0.223756 -0.863489 0.452018
-1.55306768 2.07963824 0.58157450 -0.217189 0.934615 0.281646
-1.64731264 2.00916648 0.66690993 -0.426475 0.783221 0.452420
-1.09703720 -0.31033266 0.75958061 0.023295 -0.999642 0.013167
-1.51122820 0.43537840 -0.10156352 -0.552006 -0.759211 -0.344802
-1.46348011 0.40412113 -0.09295788 -0.513596 -0.804370 -0.298676
0.34167063 -0.29867417 0.75412470 0.193097 -0.975449 0.105892
0.26785713 0.51777524 1.08957255 0.224647 -0.091616 0.970124
0.00948131 1.61864340 0.08040050 -0.081337 0.979684 -0.183311
-1.73925042 1.48126042 0.95741034 -0.583384 0.128492 0.801968
-1.15181673 0.36901751 -0.25990433 -0.064275 -0.789869 -0.609899
-0.52737516 2.63617063 -0.28905010 -0.655928 0.675460 -0.336916
-0.40061435 1.40060043 0.66239303 -0.335797 0.721882 0.605084
-1.15805125 1.97610021 0.66026372 0.887460 -0.105483 0.448652
-1.16320992 1.97040105 0.66901278 0.897406 -0.116564 0.425530
-0.78037763 1.14878416 -0.39864260 -0.020413 0.236547 -0.971406
-0.60117739 0.09984873 -0.39373767 -0.968119 -0.063381 -0.242340
-0.69396144 -0.04615866 -0.42017025 -0.302909 0.914524 -0.268125
-0.71097004 -0.05870093 -0.44400099 -0.279419 0.929031 -0.242541
-1.69662070 1.73831820 0.92021811 -0.628329 0.454073 0.631680
-1.68926728 1.72214341 0.93791622 -0.606198 0.449221 0.656297
-0.70782548 2.06714010 -0.14752746 0.183306 -0.804424 -0.565067
-0.82411122 1.97453785 -0.04900295 0.370219 -0.880971 -0.294665
-0.82498455 1.97039688 -0.03776614 0.403487 -0.890605 -0.209813
-1.05560553 1.92789638 0.40896291 0.977859 -0.061798 0.199934
-0.20178732 1.18724751 -0.43221438 -0.269251 0.456958 -0.847758
0.47442937 -0.01482844 0.79402137 0.524877 -0.256987 0.811457
-0.45158708 0.15084356 0.87974173 -0.835405 -0.023397 0.549137
0.86118692 -0.18550304 0.36716446 0.430911 -0.880940 0.195601
0.85334653 -0.18294571 0.39324322 0.420842 -0.876131 0.235132
-1.38915789 0.62001491 -0.33641165 -0.395993 -0.269516 -0.877810
-0.35442573 0.81246454 -0.73568690 -0.095353 0.499538 -0.861028
0.87388802 0.36122811 -0.00235258 0.851291 0.017707 -0.524395
0.88479382 0.33302993 0.00554488 0.444837 0.393448 -0.804561
-1.79535842 1.26496482 0.78271854 -0.661948 -0.736999 0.136592
-1.28700829 -0.08428276 0.15148354 -0.360259 0.877087 0.317697
-1.29787219 2.54324102 -1.21570039 -0.238559 0.187343 -0.952886
0.79055417 -0.04171591 -0.11624149 0.205090 -0.420508 -0.883805
-1.02765691 2.04269457 -0.07871843 -0.365666 -0.236435 -0.900215
-1.09797192 2.03363085 -0.04504573 -0.426730 -0.006525 -0.904355
-0.23996820 2.49149776 -0.55902457 -0.496219 -0.379842 -0.780696
-0.27979571 0.23959978 1.07623446 -0.491315 -0.173667 0.853492
-0.32554230 0.25708535 1.05661774 -0.557631 -0.166838 0.813150
-0.83965385 2.14765143 0.10201743 0.243067 0.534128 0.809707
-0.85310942 2.18066263 0.09361397 0.666532 0.052809 0.743604
-0.87174237 2.18093300 0.11216627 0.711743 -0.086228 0.697128
-1.28256786 0.18597673 0.26941141 -0.277841 -0.959243 0.051545
-0.93927348 0.16838072 -0.23390011 -0.215898 -0.297741 -0.929913
-1.42233014 1.95695281 -0.62233448 -0.182917 -0.970868 -0.154776
-0.28226730 1.15783191 -0.42274445 -0.163524 0.490571 -0.855921
-0.37257975 1.16450202 -0.43273526 0.142655 0.519147 -0.842695
-1.13398659 1.28854787 -0.30436930 -0.232123 0.524199 -0.819350
-1.32028365 -0.26187819 0.55853289 -0.941566 -0.013865 -0.336544
-0.50059611 1.07695794 -0.46712708 -0.052198 0.296636 -0.953563
-0.52991074 1.08239508 -0.46382979 -0.071450 0.313080 -0.947035
-1.38115823 1.79576576 0.91854686 0.608019 0.296790 0.736361
0.57411325 0.41551530 -0.44511685 0.690445 -0.159333 -0.705619
-1.19836342 2.00517488 -0.01547635 -0.051745 0.383441 -0.922115
0.53072721 1.42304182 0.49874932 0.576050 0.750317 0.324331
0.98608619 -0.07454688 0.02381313 0.562691 -0.682909 -0.465848
1.00594974 -0.03190924 -0.00592384 0.592578 -0.595955 -0.541931
-1.68625319 1.01072228 -0.04719889 -0.945762 0.132809 -0.296473
-1.27163923 -0.24497791 0.34032938 -0.632710 0.416825 0.652638
-0.71438259 -0.32528296 0.21152237 -0.208775 -0.958767 0.192817
-0.71230900 -0.32640851 0.17553386 -0.023295 -0.999642 0.013167
-0.72828054 0.26764748 -0.27327254 -0.036145 -0.432405 -0.900955
-1.37313962 2.12803245 -0.04355673 0.491682 0.822591 0.285644
0.67501235 0.81273097 -0.34862319 0.605659 0.306846 -0.734181
-1.60646570 1.30975711 -0.06947336 -0.514954 -0.363212 -0.776466
-1.67893374 2.08023810 0.29789692 -0.357229 0.931960 -0.061955
0.62809110 0.87770623 0.83304143 0.570734 0.290931 0.767868
-1.75295353 2.04046082 0.44850734 -0.507158 0.833080 0.220835
-1.72395563 0.63693964 0.16132843 -0.984726 -0.111819 -0.133461
-1.15523636 -0.00020467 0.02739288 -0.931547 0.314240 -0.182958
-1.14846253 -0.00222853 -0.00374286 -0.901801 0.299616 -0.311424
-0.14654885 0.50003058 -0.74676090 0.268023 -0.162969 -0.949529
-0.28950128 0.47871721 -0.77495652 0.156387 -0.023972 -0.987405
-0.04855451 -0.24816050 0.16580106 -0.649796 -0.741102 -0.168917
-0.39683595 -0.26122370 -0.55966032 0.235661 -0.136709 -0.962172
-1.23259187 1.12511957 0.79804873 -0.068981 0.519467 0.851701
-0.81386477 0.27664047 -0.27323481 0.081719 -0.441835 -0.893366
-0.77511126 0.28250021 -0.27610892 -0.069462 -0.418132 -0.905726
-0.04495967 1.55880523 -0.08127608 0.076025 0.891562 -0.446472
-1.71125591 1.70740891 0.02033249 -0.704678 0.223434 -0.673428
-0.50129986 1.49314392 0.39636821 -0.247469 0.903482 0.349971
-0.54111922 1.48868489 0.38463134 -0.118497 0.907546 0.402889
-0.45445713 1.50337875 0.41200334 -0.374992 0.859548 0.347214
0.28341088 0.22141200 -0.58031654 0.213710 -0.232766 -0.948761
0.04444389 -0.20413640 -0.49117979 0.179780 0.073601 -0.980949
-0.61337811 1.43967414 0.49675736 0.240168 0.865512 0.439553
-1.70948279 2.06929803 0.31093642 -0.361297 0.930374 -0.062201
0.61932719 1.37825012 0.30795756 0.703752 0.709416 0.038232
-0.87887311 1.34339833 -0.30122533 0.147205 0.418748 -0.896092
-0.89176047 1.38065708 -0.28285581 0.042974 0.525391 -0.849775
-0.64979142 -0.23168090 -0.09925422 -0.009114 -0.999527 -0.029368
-0.85987121 -0.11131341 -0.32399854 -0.730404 0.590505 -0.343241
-0.87578624 -0.11211499 -0.28665200 -0.774710 0.576711 -0.259284
-0.53408563 1.31888318 -0.29542491 -0.004108 0.587434 -0.809262
-0.51637590 1.29313934 -0.31326991 -0.066593 0.559666 -0.826038
-0.88163495 0.10574234 -0.22497365 -0.132796 -0.190973 -0.972571
-1.27353513 0.29682451 0.59612036 -0.336581 -0.840670 0.424249
0.59865254 0.19897477 0.82072961 0.542218 -0.182753 0.820123
0.73236793 -0.25116748 0.12020088 0.351638 -0.919342 -0.176525
-1.58116972 1.88048756 -0.06348413 -0.658254 0.244675 -0.711924
-1.62257755 1.86433589 -0.01492326 -0.826299 0.140426 -0.545446
-0.43598303 1.30838025 -0.31380272 -0.202534 0.752933 -0.626156
-1.62374771 0.63192952 -0.11023202 -0.756244 -0.333779 -0.562749
-0.24531716 1.54146791 -0.04711859 -0.273673 0.897942 -0.344679
0.87868690 0.42726621 0.50179929 0.902264 0.022523 0.430596
-1.61503780 0.68012422 -0.13949381 -0.789021 -0.200702 -0.580658
-1.59915590 0.51944244 -0.07864698 -0.808089 -0.372841 -0.456050
-1.59057903 0.48223275 0.00933724 -0.694059 -0.645524 -0.318717
0.91539472 0.67759520 0.10029098 0.979212 0.089242 -0.182151
0.39823914 1.44772792 -0.10461761 0.462876 0.763828 -0.449792
-0.80491209 -0.18381673 0.84608662 0.024913 0.214727 0.976356
-1.06093228 1.70536923 -0.05139071 0.499075 0.502413 -0.706049
0.77758348 0.24664335 -0.17598914 0.883951 -0.252771 -0.393366
-0.52768105 -0.02282392 0.96307105 -0.297357 0.810258 0.505035
-0.99292344 0.23307182 0.68739319 -0.753134 -0.175680 0.633977
-1.00507987 0.23410809 0.67334241 -0.760474 -0.229548 0.607443
