0.79171354 0.59950316 -0.21779801 0.836556 -0.314295 -0.448769
0.79020339 0.61309814 -0.22971034 0.834160 -0.294685 -0.466194
0.78807491 0.54965907 -0.19707614 0.824078 -0.099932 -0.557592
0.78988981 0.58176017 -0.20833763 0.837743 -0.274086 -0.472295
0.79936910 0.53900224 -0.17979543 0.806665 0.001365 -0.591008
0.79306543 0.54596400 -0.18823557 0.816986 -0.052208 -0.574289
-0.85515529 0.07362846 -0.22422783 -0.070899 -0.129014 -0.989105
0.54519057 1.31089008 0.63796103 0.438600 0.625380 0.645392
-1.81269467 1.98308015 0.27431253 -0.904034 0.277825 -0.324864
0.65094298 -0.09269826 0.60494751 0.292252 -0.486045 0.823619
-1.76928425 0.88571471 0.14695531 -0.932770 -0.112366 -0.342512
-1.77442420 0.86102778 0.18345717 -0.986681 0.021723 -0.161208
-1.77125549 0.88042921 0.15588039 -0.957264 -0.094561 -0.273319
-1.77295554 0.82271677 0.14969903 -0.960055 0.126701 -0.249484
-1.77431870 0.83014506 0.15993223 -0.964715 0.141526 -0.222027
-1.77756751 0.78066278 0.16240051 -0.980431 -0.131626 -0.146388
-1.77558088 0.79225463 0.14779307 -0.983446 -0.014953 -0.180586
-1.77273607 0.82113433 0.14769374 -0.959527 0.129595 -0.250027
-1.83042300 1.57160342 0.70266348 -0.945619 0.322863 0.039560
-0.00375237 0.20241632 1.11416328 -0.073362 -0.455396 0.887261
-1.09525526 0.26810399 0.63344878 -0.173479 -0.855534 0.487818
-1.08132362 0.27376774 0.64621985 -0.168583 -0.836949 0.520669
-1.65150452 0.64226592 0.60061347 -0.817456 -0.282905 0.501727
-1.64659786 0.63265502 0.60319680 -0.801298 -0.318932 0.506166
-1.64070690 0.60855126 0.59550852 -0.772920 -0.414936 0.480024
-1.62629855 0.59087676 0.60018098 -0.726930 -0.505042 0.465301
0.82203311 1.10093546 0.19788207 0.894995 0.445503 0.022608
-0.54842061 -0.22942008 -0.33843184 -0.006244 -0.945368 0.325946
-0.54425746 -0.22634712 -0.32598647 -0.016940 -0.988164 0.152460
-0.25755927 -0.22665416 0.59694898 0.019942 -0.998133 0.057726
-1.07905388 0.61372614 0.89499646 0.156683 -0.331392 0.930392
-1.08952963 0.61087906 0.89610636 0.072327 -0.332705 0.940253
-1.10025847 0.64553428 0.90240222 -0.132342 -0.101343 0.986010
-1.10626912 0.66460413 0.90210307 -0.220265 -0.025003 0.975120
-0.48824829 2.44540405 -0.24343304 0.577729 0.122014 0.807057
-0.48036963 2.43972301 -0.24799407 0.554102 0.159809 0.816965
-0.00712492 -0.15396114 0.93154711 0.247041 0.182243 0.951714
-0.00548720 -0.19391645 0.93534774 0.236234 0.045288 0.970640
-0.64804327 0.19087721 -0.26711753 -0.849263 -0.442356 -0.288225
-0.65887320 0.19415472 -0.25245956 -0.629510 -0.394889 -0.669164
-0.85055643 -0.31018239 0.64707196 -0.013140 -0.999688 0.021227
-0.85949188 -0.30985036 0.66333193 -0.017252 -0.999624 0.021312
-0.85438234 -0.31084967 0.61225325 0.001057 -0.996331 0.085581
-0.86074305 -0.31051609 0.63160127 -0.007089 -0.999544 0.029369
-1.18688619 -0.31591940 0.57602698 -0.007116 -0.999341 0.035582
-1.19280553 -0.31638592 0.54439014 -0.001005 -0.999632 0.027126
-0.56798345 1.07369888 -0.46043649 -0.219387 0.252502 -0.942397
-0.81825757 2.23014855 -0.22827145 -0.470583 -0.121579 -0.873940
-0.82730567 2.24846888 -0.22461011 -0.511371 -0.051276 -0.857829
-0.82329023 2.23131466 -0.22578040 -0.480050 -0.109685 -0.870357
0.40905151 -0.08863559 -0.41397673 0.778613 -0.141973 -0.611233
0.41904917 -0.11417732 -0.39538926 0.883620 -0.161054 -0.439634
-0.32464629 -0.22384818 0.65672022 0.018234 -0.996417 0.082588
-0.31278411 -0.22124352 0.68436319 0.009480 -0.997462 0.070570
-0.31324360 -0.21918912 0.72249866 0.001045 -0.997548 0.069985
-1.25486720 2.07665181 -0.24238651 0.945791 0.242968 0.215514
-1.25113046 2.05632162 -0.23617926 0.969477 0.175918 0.170782
-1.78638589 1.72415006 0.51401311 -0.929454 0.303236 0.210150
-1.79689395 1.69724023 0.53250211 -0.852523 0.500362 0.151136
-1.80247605 1.68563402 0.54605126 -0.850523 0.502649 0.154775
-1.81456113 1.66409743 0.55275005 -0.858338 0.483092 0.172850
-1.81723213 1.65186691 0.57174689 -0.873043 0.447601 0.193517
0.94854563 0.32387730 -0.00497549 -0.091906 0.643339 -0.760045
-1.56659889 1.31777215 -0.09925528 -0.457653 -0.346803 -0.818708
-1.56439948 1.32688200 -0.10511002 -0.461850 -0.344403 -0.817363
-1.54448044 1.29508913 -0.09799758 -0.384076 -0.359197 -0.850566
-0.38281056 0.35010266 1.04916608 -0.564265 -0.341146 0.751814
-0.37931520 0.36864337 1.05882871 -0.529193 -0.289081 0.797739
-0.24740408 -0.21969377 0.68132651 0.005306 -0.996466 0.083835
-0.24277313 -0.22070438 0.67214501 0.011722 -0.996381 0.084186
-1.04915750 1.66919160 -0.06556531 0.632756 0.348261 -0.691617
-1.06382048 1.63729715 -0.08808799 0.507498 0.217934 -0.833637
-1.50366020 0.96915007 -0.25487408 -0.582177 0.295076 -0.757628
-1.51894557 0.93027967 -0.25689206 -0.614826 0.243729 -0.750057
-1.51726329 0.91575933 -0.26263073 -0.582376 0.217812 -0.783196
-0.87048185 1.07833481 0.82915145 0.234017 0.267648 0.934666
-0.88517892 1.09752738 0.82471633 0.070238 0.356493 0.931654
0.76011753 1.09921312 0.54931378 0.804600 0.372707 0.462285
0.76385546 1.09279692 0.54816246 0.815290 0.360762 0.452939
0.34583870 1.41578579 -0.18438123 0.468238 0.698191 -0.541556
-0.49970311 0.42886162 0.91046906 -0.837083 -0.284204 0.467462
-0.49161288 0.41637224 0.91718441 -0.852193 -0.264685 0.451341
-0.48821416 0.40499622 0.91779619 -0.849666 -0.261789 0.457748
-0.47387525 0.37622285 0.92877954 -0.839679 -0.287136 0.460970
-0.46427065 0.36725274 0.94062102 -0.832484 -0.307691 0.460756
-0.46299973 0.35374373 0.93305039 -0.824523 -0.315675 0.469586
-0.44783729 0.32812291 0.94155490 -0.809072 -0.332212 0.484807
-0.39861605 2.35633874 -0.25267264 0.345251 0.559209 0.753716
-0.09525570 -0.23261209 -0.29189980 -0.104345 -0.771563 0.627538
-1.09003425 1.99985540 0.53981513 0.904870 0.009167 0.425590
-0.14989856 1.58152568 0.49964225 -0.198797 0.926309 0.320049
-0.14730127 1.59065139 0.47230589 -0.186382 0.948234 0.257125
-0.15503731 1.59050763 0.46644926 -0.191398 0.948843 0.251124
-0.15654004 1.59890211 0.42988145 -0.167257 0.971622 0.167257
-0.17144838 1.59599078 0.42907706 -0.212751 0.960683 0.178394
-0.16758038 1.59938025 0.41195893 -0.188935 0.972571 0.135678
-0.17748843 1.60230660 0.36145151 -0.173755 0.980563 0.091130
-0.18347786 1.60120952 0.36190197 -0.174131 0.980248 0.093763
-0.18348236 1.60242260 0.34897524 -0.167542 0.982351 0.083168
-0.20092125 1.59991562 0.34272853 -0.175768 0.980662 0.086066
-0.20890699 1.60171390 0.29182827 -0.170510 0.984782 0.033638
-0.21548310 1.60121298 0.27250135 -0.184632 0.982791 0.005734
-0.22341904 1.59952617 0.26593283 -0.195224 0.980742 -0.005776
-1.26021338 2.03249454 -0.15519501 0.948136 0.290191 0.129717
-1.29077387 2.33056474 -1.20147026 -0.429039 -0.163237 -0.888414
-1.31346655 2.33521700 -1.18544650 -0.732598 -0.058780 -0.678119
-1.31885386 2.33553052 -1.17866576 -0.798054 -0.043633 -0.601004
-1.44195771 2.06445026 -0.83261389 -0.975811 0.141549 -0.166602
-0.30163246 1.36323321 0.73740351 -0.370572 0.476449 0.797291
-0.29260582 1.36835146 0.73931116 -0.354515 0.498888 0.790841
-0.32280597 1.33187425 0.74489897 -0.249480 0.525302 0.813521
-0.36568612 1.26158965 0.78530878 -0.126374 0.506949 0.852662
-0.35092816 1.29725671 0.76519042 -0.133862 0.548689 0.825240
-0.37730592 1.24549270 0.79292774 -0.141150 0.490388 0.859998
-0.37113768 1.27185726 0.77809387 -0.149288 0.524724 0.838080
-0.40546718 1.20698285 0.80785179 -0.171658 0.462156 0.870026
-0.41607943 1.19109356 0.81414157 -0.175187 0.460787 0.870049
-0.41337988 1.20920479 0.80495095 -0.185583 0.470638 0.862589
-0.44021195 1.16223419 0.82468200 -0.191348 0.464278 0.864773
-0.43762901 1.17451346 0.81850141 -0.198809 0.470864 0.859513
-0.45784059 1.13824224 0.83368379 -0.184924 0.460090 0.868401
-0.45495054 1.15035343 0.82777417 -0.198299 0.469656 0.860291
-0.48202601 1.11558914 0.84060633 -0.211426 0.460339 0.862199
-0.50206769 1.08683038 0.85070074 -0.271130 0.439629 0.856280
-0.49295920 1.10691476 0.84293246 -0.245462 0.461957 0.852258
-0.51933837 1.06787348 0.85384595 -0.263357 0.436898 0.860095
-0.53334367 1.04352260 0.86177599 -0.222351 0.396108 0.890875
-0.56016618 1.00806117 0.86558294 -0.210049 0.202021 0.956591
0.95912057 0.45242766 0.34200945 0.164100 0.921486 0.352044
0.95548487 0.46669012 0.31505898 0.438838 0.857799 0.267584
-0.50334287 0.86645865 0.92916501 -0.647506 0.617389 0.446729
-0.75322479 2.03466821 0.04301389 0.571369 -0.527547 0.628674
-0.74821240 2.04901552 0.04929488 0.570273 -0.459898 0.680649
0.17041297 1.62848127 0.26326451 0.174557 0.984594 0.010268
-1.16074097 1.73864627 0.67172980 0.462269 0.475430 0.748514
-1.15671229 1.76693356 0.65564257 0.546645 0.250740 0.798942
-0.30983597 0.94067544 1.01178813 -0.273619 0.860600 0.429536
-0.45545241 2.69308925 -0.33351260 -0.717307 0.644145 -0.265610
-0.47142351 2.66994119 -0.34090650 -0.733419 0.552935 -0.395423
-1.49028945 2.23796248 -0.67519146 -0.734669 -0.575029 -0.360004
-1.28691983 1.90381920 -0.29629660 0.645327 -0.709380 -0.283432
-1.28059959 1.91049755 -0.29606068 0.713811 -0.643547 -0.276262
-0.57275170 1.19949782 0.75801617 -0.164928 0.600703 0.782275
0.22057337 -0.30703485 0.48456541 -0.005113 -0.999108 0.041928
-0.75179565 0.23608442 0.82319707 0.163059 -0.210020 0.964004
-0.73143780 0.25635028 0.82241464 0.256058 -0.180189 0.949719
-1.43009567 0.64930558 0.80550742 -0.491514 -0.265139 0.829527
-0.95971781 1.61434364 0.53038460 0.851939 0.395710 0.342948
-0.94862890 1.60013676 0.51771396 0.878109 0.329101 0.347300
-0.11979830 -0.30731541 -0.48135111 0.117202 -0.728430 -0.675021
-0.11347676 -0.28872061 -0.49225959 0.095828 -0.516328 -0.851012
-1.06027210 0.88200372 -0.43637875 0.005073 0.033483 -0.999426
-1.07239914 0.89915520 -0.43611950 -0.091109 0.011791 -0.995771
-1.76879764 0.74612164 0.36388728 -0.882329 -0.462838 0.085297
-1.77990437 0.76954406 0.35279307 -0.929090 -0.366642 0.048623
1.06936586 0.12860267 0.56437987 0.651021 -0.230603 0.723183
1.05610728 0.09326848 0.56115299 0.607388 -0.358539 0.708893
-1.26807785 0.18375157 0.30211240 -0.288192 -0.949574 0.123511
-1.25816405 0.18767716 0.33179188 -0.256550 -0.945257 0.201673
-0.36435661 0.07496440 -0.64417732 -0.359016 -0.402913 -0.841884
-0.34073141 0.04137581 -0.63771987 -0.275709 -0.421941 -0.863684
-0.34677777 0.06682353 -0.64786106 -0.313041 -0.411734 -0.855851
-0.32185897 0.00800655 -0.62561369 -0.208517 -0.466539 -0.859571
-0.33024824 0.04276743 -0.64193606 -0.236081 -0.431562 -0.870643
-0.30976346 -0.00953883 -0.61869699 -0.186219 -0.481191 -0.856608
-0.31141299 -0.00359109 -0.62165982 -0.185535 -0.476455 -0.859400
-0.75609827 -0.32632378 0.16755638 -0.090457 -0.975203 0.201980
-0.76045460 -0.32785350 0.15735224 -0.044521 -0.989729 0.135845
-1.48253381 0.98449278 -0.26280460 -0.492556 0.300569 -0.816730
-1.48371375 0.98846638 -0.26051044 -0.502212 0.300697 -0.810780
-1.17102027 0.71052349 0.88385075 -0.036922 -0.206050 0.977845
-1.17423868 0.73744118 0.89047569 0.144129 -0.192597 0.970636
-1.80041790 1.34499300 0.09922618 -0.832514 -0.244676 -0.497046
-1.79901350 1.35809994 0.09089363 -0.845972 -0.199848 -0.494360
-1.46084619 1.96566975 -0.54012722 -0.518834 -0.854788 0.012192
-0.08268488 -0.23358746 0.30202225 -0.203711 -0.978975 0.010477
-0.05824628 -0.24613595 0.27787977 -0.592874 -0.804111 0.043656
-0.05648839 0.91917884 1.08237195 0.006885 0.607231 0.794495
-0.06690520 0.90091813 1.09598899 0.051777 0.547156 0.835428
-0.75688815 0.47810611 -0.35706142 -0.225950 -0.231427 -0.946250
0.04169468 -0.22842725 0.49563622 -0.248267 -0.900518 0.356975
-0.00185413 -0.21439275 0.66553026 0.042209 -0.996780 0.068184
-0.46277222 0.97506392 0.89524096 0.007924 0.166413 0.986024
-1.56671786 1.59286213 -0.12440538 -0.545576 0.209367 -0.811487
-1.73197412 1.73404253 0.05469607 -0.821856 0.249188 -0.512306
-1.73275876 1.72353709 0.05046031 -0.789461 0.248563 -0.561221
-1.73817730 1.75527143 0.08321225 -0.885319 0.327282 -0.330298
-1.73867142 1.73315120 0.06513418 -0.831220 0.297867 -0.469413
-1.73319995 1.78656268 0.10089549 -0.906467 0.348866 -0.237929
-1.71723592 1.83057070 0.11949012 -0.869940 0.416058 -0.264764
-1.73513484 1.78491354 0.10591668 -0.907609 0.348184 -0.234551
-1.71584928 1.85224760 0.14332110 -0.875024 0.234836 -0.423302
-1.71704757 1.83307326 0.12407259 -0.869249 0.411111 -0.274580
-1.72354043 1.86573327 0.16124493 -0.815605 0.020701 -0.578238
-1.71372592 1.86414456 0.14615075 -0.862189 0.134762 -0.488332
0.96828574 -0.04211758 0.53819937 0.556861 -0.587327 0.587327
0.97466266 -0.03114241 0.54267830 0.569163 -0.559030 0.602942
0.98709297 -0.02711138 0.53455693 0.586086 -0.552306 0.592842
-0.78954595 0.02904194 0.78702885 0.076659 0.031311 0.996566
-0.77220714 0.04895253 0.78416461 0.155160 0.001116 0.987889
-1.68302536 1.60800946 -0.05381390 -0.647827 0.329596 -0.686794
0.64204097 1.30234468 -0.03535464 0.702186 0.617073 -0.355185
0.63600832 1.30936205 -0.03538220 0.692254 0.630066 -0.351855
-1.49118412 2.08726406 -0.41623956 -0.970607 -0.115157 -0.211332
-1.49007607 2.08052087 -0.41548893 -0.986312 0.010215 -0.164574
-0.55151904 0.63523096 -0.72851068 -0.581331 0.049265 -0.812174
-0.54425746 0.65742546 -0.73126292 -0.534219 0.099356 -0.839487
1.19348609 0.39294019 0.28603026 0.867301 0.496962 0.028592
1.19932270 0.38186726 0.29711151 0.899746 0.427068 0.089836
-0.39735150 2.23835063 -0.29763553 -0.009722 -0.720826 -0.693048
-0.40630791 2.22280455 -0.27965170 0.023758 -0.764442 -0.644255
0.14659697 0.03723230 1.04159737 0.350002 -0.298929 0.887773
0.13395652 0.03707617 1.04812622 0.418735 -0.307485 0.854467
0.15337014 0.05112069 1.04176581 0.271297 -0.257093 0.927524
-0.25818777 2.39779782 -0.48467621 -0.431301 -0.587835 -0.684419
-0.20627251 1.38084602 0.75185311 -0.109544 0.571089 0.813546
-0.19922236 1.40013635 0.73817492 -0.103863 0.610012 0.785555
-0.22662623 1.35843194 0.76295608 -0.155154 0.518657 0.840786
-0.21841636 1.37265289 0.75554985 -0.127561 0.549830 0.825479
-0.24707159 1.31972861 0.77995247 -0.215851 0.475476 0.852837
-0.23473622 1.34780288 0.76752585 -0.176992 0.492305 0.852238
-0.25460050 1.30451727 0.78643036 -0.226365 0.487671 0.843170
-0.27303872 1.28384614 0.79408866 -0.231695 0.517093 0.823973
-0.30976892 1.24672937 0.80710429 -0.255629 0.512807 0.819562
-0.29724818 1.27137053 0.79473311 -0.249886 0.523053 0.814845
-0.32714900 1.21039176 0.82244307 -0.246630 0.405070 0.880393
-0.31205830 1.23362386 0.81502181 -0.246514 0.482311 0.840599
-0.34069115 1.18671787 0.82840866 -0.169493 0.337586 0.925909
-0.34099567 1.20911181 0.81958121 -0.197873 0.417731 0.886762
-0.24866681 0.05346082 1.02186751 -0.422781 -0.228570 0.876933
-0.33016276 2.40223670 -0.31700069 0.392355 0.503061 0.770057
-0.73834592 2.39096236 -0.26615664 -0.553935 0.210219 -0.805583
1.04551935 0.07874795 0.56292391 0.568503 -0.403720 0.716808
0.83851451 0.76686084 -0.16918844 0.899023 0.030724 -0.436821
0.84205472 0.81949162 -0.14200868 0.917884 0.240638 -0.315568
0.83941698 0.84819353 -0.12099854 0.904503 0.307384 -0.295618
0.84005392 0.85810816 -0.10820294 0.898498 0.313360 -0.307420
-0.54016054 0.17135529 -0.56458437 -0.823440 -0.325912 -0.464464
-0.53687197 0.13665505 -0.54699135 -0.832869 -0.271419 -0.482350
-0.54491311 0.10719468 -0.52073014 -0.851389 -0.157883 -0.500210
-0.54611909 0.09267175 -0.51442766 -0.839602 -0.139689 -0.524935
-1.02779555 2.09080911 -0.09014827 -0.513864 -0.110833 -0.850682
-1.03070688 2.10202122 -0.08866946 -0.533712 -0.075031 -0.842331
-0.16348839 1.60623515 0.18623504 -0.179361 0.982330 -0.053452
-0.42957914 2.27064776 -0.32282421 -0.110095 -0.609192 -0.785344
-0.38857898 0.72173142 -0.76639670 -0.192121 0.257524 -0.946980
-0.37665883 0.74544597 -0.76302612 -0.248100 0.296859 -0.922128
-0.35927215 0.76308513 -0.76064414 -0.144534 0.380278 -0.913509
-0.99771249 2.13049364 -0.11379066 -0.566275 -0.063866 -0.821738
-0.99594349 2.11740518 -0.11394273 -0.538763 -0.121185 -0.833696
-1.10091329 -0.10277586 0.31546208 -0.398837 0.766744 0.503023
-1.09944713 -0.09396261 0.30412000 -0.407611 0.751378 0.518926
-0.63475370 1.42823970 -0.15513822 0.051899 0.828982 -0.556862
-0.62149489 1.44673538 -0.12343079 0.044915 0.886054 -0.461401
-0.60770637 1.45708907 -0.10025375 0.060119 0.920496 -0.386100
-1.25734603 0.17867424 0.27757367 -0.300617 -0.952589 0.046932
-1.25807929 0.17931354 0.26493093 -0.296923 -0.954837 0.011088
0.69025236 0.48647362 -0.31210092 0.792650 -0.018046 -0.609410
-0.33591160 -0.07601345 1.01022768 0.316917 0.587182 0.744836
-0.33702978 -0.09082776 1.02081764 0.336044 0.495306 0.801090
-0.50237793 2.33883047 -0.35563412 -0.177824 -0.457051 -0.871483
-0.97128189 1.58757603 -0.02475312 0.513649 0.655113 -0.554068
-1.19065297 0.16076809 0.27792692 -0.212616 -0.975605 0.054673
-1.16192186 0.48362312 -0.35490337 -0.125804 -0.498879 -0.857493
-1.16866076 0.46941116 -0.34510010 -0.168423 -0.517193 -0.839134
-0.07627560 0.96582109 -0.55734766 0.070264 0.891388 -0.447761
-0.09107046 0.95382613 -0.58243471 0.006634 0.884928 -0.465682
-0.09553801 0.95203525 -0.58488864 0.011955 0.885976 -0.463577
-0.11026601 0.94419146 -0.59897083 0.025592 0.882250 -0.470085
-0.11953863 0.93956643 -0.60988510 0.001327 0.874782 -0.484515
-0.11542507 0.93401033 -0.62016010 0.006714 0.860773 -0.508944
-0.14176609 0.92540407 -0.63182718 -0.043160 0.839534 -0.541590
-0.14401731 0.92054415 -0.63897270 -0.043396 0.824530 -0.564152
-1.41070724 1.63005769 0.99794185 0.565947 0.315840 0.761544
-1.41379285 2.35172033 -0.44246536 0.238696 0.888068 0.392885
-1.41502869 2.35872030 -0.45812097 0.237274 0.894565 0.378753
-0.00083179 1.51569164 0.63723868 -0.009670 0.777723 0.628533
0.00327371 1.52574098 0.62490803 -0.015143 0.810840 0.585072
-0.68328738 0.52620602 0.83348167 0.213424 0.029808 0.976505
-0.68482208 0.51899725 0.83423442 0.208833 0.034607 0.977339
-0.10102539 -0.20986725 -0.51320487 0.111168 -0.099466 -0.988811
-0.10819421 -0.23469031 -0.50962389 0.093318 -0.205300 -0.974240
-0.10889605 -0.28336146 -0.49470639 0.085094 -0.456162 -0.885819
-0.07455674 -0.22491206 -0.50819498 0.101343 -0.132342 -0.986010
0.51645052 0.54388720 -0.49041945 0.545939 0.081249 -0.833876
0.43051142 1.14659226 -0.31984648 0.237634 0.416980 -0.877302
-1.18509555 2.00691962 -0.01684820 -0.165083 0.326003 -0.930844
-1.18144107 1.98279405 -0.02531660 -0.071861 0.320110 -0.944651
1.10546505 0.23447683 0.54450440 0.686778 0.029615 0.726264
1.09406996 0.19612312 0.55402440 0.700453 -0.080093 0.709190
1.10761201 0.24909420 0.54175192 0.671870 0.083073 0.735996
1.10821080 0.24374485 0.54198366 0.680856 0.061896 0.729797
1.07989502 0.31455553 0.53942025 0.403459 0.409837 0.818080
1.10977066 0.29221976 0.52975529 0.605925 0.261038 0.751474
-1.75627398 1.62023365 0.04002848 -0.791963 0.103936 -0.601658
-1.74776673 1.54527831 -0.00741779 -0.837087 0.194566 -0.511302
-1.74234033 1.57436800 -0.00085886 -0.809173 0.298117 -0.506325
-1.73511493 1.50796211 -0.03333896 -0.755669 0.052854 -0.652818
-1.74077535 1.54944360 -0.01760686 -0.806716 0.219734 -0.548567
-0.31337941 2.73143816 -0.45680341 0.555722 0.830084 -0.046194
-0.31345680 2.71930695 -0.43578801 0.833249 0.454926 0.314227
-0.27155492 2.62049103 -0.45666134 0.764544 0.256950 0.591142
-0.28195456 2.64559627 -0.45256892 0.810804 0.259893 0.524455
-0.30958840 2.71269631 -0.43772194 0.869853 0.334794 0.362311
-0.66493601 2.42243862 -0.30706617 -0.463102 0.174949 -0.868867
-0.66176564 2.44819164 -0.30175808 -0.500256 0.247819 -0.829656
-0.64335155 2.47389817 -0.30535430 -0.549724 0.301153 -0.779173
-1.14571309 0.05104191 0.04434765 -0.982001 0.183165 -0.046087
-1.15509462 0.01177312 0.06681962 -0.949396 0.310502 0.047278
-1.15232992 0.02548182 0.05620414 -0.965534 0.260274 -0.001199
-0.55121648 1.51065493 0.12640510 -0.103292 0.989976 -0.096328
-0.53943270 1.51074135 0.10772052 -0.126786 0.984102 -0.124371
-1.37049305 -0.32623366 0.09274791 -0.074501 -0.996584 0.035631
-1.36871791 -0.32902139 0.02243476 -0.089548 -0.995814 0.018341
-1.38073695 -0.32777119 -0.00498464 -0.166398 -0.985764 -0.024099
-1.38127780 -0.32789832 0.02500246 -0.112821 -0.993480 0.016430
0.13312870 1.25566936 0.81281447 0.321236 0.257280 0.911381
0.13368855 1.24187434 0.81574887 0.347502 0.214846 0.912734
-1.52856624 1.04148030 -0.20729361 -0.558242 0.297411 -0.774540
-1.81825149 1.28307676 0.19563000 -0.774218 -0.575539 -0.263329
-1.83248663 1.31028342 0.18983561 -0.860119 -0.415494 -0.295905
-0.88705295 0.05632935 0.77515942 -0.392358 0.006432 0.919790
-0.88236195 0.03624783 0.77785546 -0.329378 0.083337 0.940513
0.06189636 -0.30817637 -0.32374373 -0.101169 -0.864926 0.491597
0.06020398 -0.31702930 -0.35823801 -0.007807 -0.989239 0.146100
-1.57478476 0.39893073 0.19985378 -0.580603 -0.807605 -0.103315
-1.55158567 0.38547638 0.18209329 -0.620093 -0.779836 -0.085680
-0.53996056 -0.29446578 1.04057419 -0.040751 -0.924128 0.379905
-0.53379589 -0.29892316 1.02457201 -0.022460 -0.977608 0.209234
-0.51343846 -0.28248814 1.06635058 -0.083000 -0.746996 0.659628
-0.52771264 -0.28646860 1.05854714 -0.097028 -0.812430 0.574928
-0.87929541 -0.13390626 -0.32020047 -0.777656 0.533937 -0.331907
-0.86715215 -0.11415818 -0.31522363 -0.742440 0.583923 -0.328356
-1.48529506 1.89638722 0.88903964 0.015305 0.658132 0.752747
-1.47470737 1.88298154 0.90002882 0.067457 0.630074 0.773599
-1.46816266 1.86207724 0.91579521 0.125666 0.586932 0.799824
-1.45512271 1.84306610 0.92582673 0.189360 0.540813 0.819551
-1.12275064 -0.05598897 0.23211817 -0.540038 0.664532 0.516485
-1.11372435 -0.01998737 0.20815404 -0.678874 0.438683 0.588802
-1.11092365 -0.03434313 0.22251037 -0.623130 0.521808 0.582602
-0.55979526 0.91364634 -0.48946434 -0.232674 0.361450 -0.902893
-0.95987505 -0.26816905 -0.24793011 -0.470333 0.377229 -0.797800
-0.15910730 1.60280585 0.12991931 -0.159365 0.983751 -0.082678
-0.12150060 1.60669553 0.11001506 -0.154545 0.982032 -0.108303
-0.12399037 1.60794699 0.12715966 -0.155624 0.983208 -0.095305
-0.48138440 -0.32336846 -0.43818656 -0.033062 -0.966132 0.255921
-0.47187024 -0.32648268 -0.44739890 -0.044970 -0.988197 0.146442
-1.33241987 -0.28389788 0.69179535 -0.898251 -0.431878 0.081408
-1.32744038 -0.29142627 0.66766638 -0.762886 -0.640824 0.085734
-1.31939733 -0.30046421 0.66255373 -0.521756 -0.849797 0.074941
0.18651816 0.74035525 1.10867882 0.375135 0.159963 0.913064
-0.07312033 1.26943862 0.83205593 -0.112423 0.401115 0.909103
-0.08803582 1.24784040 0.83971572 -0.108937 0.390243 0.914244
-1.07371771 -0.31027687 0.79686993 0.017218 -0.999667 0.019244
-1.08560729 -0.31087285 0.78614920 -0.006992 -0.999831 0.016980
-1.30198073 1.37504458 0.98691338 0.816308 -0.276265 0.507266
-1.30514681 1.37219179 0.99122888 0.801931 -0.291468 0.521491
-1.28773093 1.40413296 0.97278088 0.869655 -0.091915 0.485027
-1.28708827 1.39184177 0.96727395 0.870761 -0.174740 0.459609
-1.30650449 1.48700345 0.98370206 0.771540 0.263491 0.579049
-1.30610144 1.48237121 0.98531115 0.774549 0.252946 0.579734
-1.29333425 1.46687043 0.97215080 0.828754 0.188696 0.526840
-1.28448987 1.45332539 0.96129948 0.862523 0.131915 0.488521
-1.27902424 1.42290485 0.95659864 0.890316 0.014595 0.455109
-1.61067235 1.51009393 1.04755294 -0.259717 -0.336017 0.905340
-0.23338366 -0.21566385 0.73456353 0.003219 -0.994785 0.101947
-0.23341902 -0.21877317 0.69599289 0.026982 -0.996175 0.083105
-0.53723007 1.51738250 0.17611000 -0.144796 0.988087 -0.052127
-1.40371788 -0.32440129 0.02488868 -0.237088 -0.971219 -0.022866
-1.41097641 -0.32230231 0.02576478 -0.310086 -0.950343 -0.026364
-1.39615214 2.15366006 -0.07023537 0.386886 0.819944 0.421913
-1.36728323 2.15036893 -0.09883021 0.570882 0.718949 0.396492
0.41762888 0.67035228 1.00810838 0.321182 0.234765 0.917457
0.41854015 0.68740904 1.00286543 0.299354 0.287672 0.909743
0.61292958 0.13376948 0.79256207 0.490126 -0.346441 0.799847
-0.33418858 1.35989010 0.72453296 -0.313033 0.522782 0.792912
-0.33380878 1.36499000 0.72065026 -0.330820 0.519403 0.787895
-0.37002382 1.33186984 0.73689103 -0.181530 0.599507 0.779512
-0.38605145 1.29814732 0.75619447 -0.248563 0.561221 0.789461
-0.37363926 1.32587576 0.74004120 -0.198123 0.591296 0.781739
-0.40429473 1.27331436 0.76754761 -0.241485 0.559310 0.793005
-0.39114931 1.29689682 0.75544244 -0.258418 0.559122 0.787783
-1.01186180 0.15383668 -0.19398253 -0.566517 -0.234367 -0.790019
-0.64220405 0.92304391 0.89330035 -0.185320 0.073886 0.979897
-1.23380649 2.10922050 -0.51581991 0.987105 -0.155495 -0.038010
-0.46427417 0.93347836 -0.49719426 -0.116108 0.595236 -0.795118
-0.47252271 0.94969338 -0.49059844 0.008964 0.377770 -0.925856
1.02716601 0.02229289 0.53482348 0.603114 -0.522023 0.603114
1.05417764 0.05386771 0.53801137 0.598704 -0.504260 0.622315
-0.21279569 0.19349612 1.09032810 -0.397047 -0.416182 0.818013
-0.21265608 0.21347579 1.10114133 -0.405797 -0.319392 0.856340
-0.66494232 2.54064894 -0.23999958 -0.610027 0.623471 -0.489030
-0.63839966 2.53947687 -0.26868796 -0.602914 0.555627 -0.572515
-0.06480154 -0.24032852 0.25346154 -0.545951 -0.837491 0.023378
-0.04919188 -0.25532848 0.22891341 -0.686718 -0.726200 -0.032432
-0.03263631 -0.27360648 0.23173872 -0.726271 -0.687088 -0.020990
-0.02083758 -0.28630310 0.21956700 -0.681320 -0.731685 -0.020985
-0.07745001 1.61209154 0.10016431 -0.132161 0.983329 -0.124886
-0.10348947 1.61081350 0.12094250 -0.147777 0.983981 -0.099720
-0.04146293 1.61299109 0.07582301 -0.110049 0.978072 -0.176820
-0.07541168 1.61307478 0.10455041 -0.131337 0.984424 -0.116878
-0.04183844 1.61503243 0.08839069 -0.116343 0.980956 -0.155532
-1.32252848 2.03699756 -0.79366928 0.737860 -0.641550 -0.209707
-1.30812871 2.05267763 -0.78866816 0.774912 -0.595491 -0.211902
-1.29434168 2.07283783 -0.79254395 0.817082 -0.531946 -0.222283
-1.11341596 1.68244553 0.67930472 0.586626 0.482412 0.650499
-0.25906894 1.45433533 -0.16765876 -0.347134 0.705677 -0.617671
-0.27441758 1.44331312 -0.17328866 -0.305274 0.762387 -0.570591
-0.27792811 1.43003321 -0.19186996 -0.294485 0.811014 -0.505506
0.07906639 1.62006497 0.07885886 0.048466 0.982314 -0.180859
-1.42650735 1.71459663 0.98007584 0.486357 0.310072 0.816891
-1.42637968 1.68526137 0.99078470 0.494720 0.268296 0.826601
-0.30630198 0.17506272 1.03499782 -0.195462 -0.346695 0.917386
-0.30397728 0.17940670 1.03740823 -0.232792 -0.367489 0.900422
-0.85423684 -0.32434183 0.13014670 -0.073167 -0.929881 0.360512
-0.85100842 -0.32837957 0.09657688 0.005203 -0.997970 0.063479
1.14865780 0.03774208 0.17815648 0.877417 -0.453937 -0.155180
1.15853524 0.07468465 0.15104926 0.916363 -0.326553 -0.231608
1.15823340 0.08308231 0.14036174 0.912229 -0.318625 -0.257519
1.17084265 0.14905818 0.10406288 0.884314 -0.317871 -0.341975
1.16520953 0.15075928 0.09044877 0.864601 -0.314819 -0.391604
1.16976500 0.20388564 0.06987938 0.858054 -0.104571 -0.502800
1.17011607 0.17726362 0.08072113 0.871368 -0.235464 -0.430435
-1.58355057 1.19338560 0.82452542 -0.219244 -0.958029 0.184696
-0.79843724 0.52024102 -0.36820933 0.100896 -0.286963 -0.952613
-0.80108100 0.53567034 -0.37351808 0.068354 -0.303080 -0.950511
-0.80279285 0.54965854 -0.37812927 0.065625 -0.302391 -0.950922
0.12783857 1.35840130 0.76110339 0.099854 0.554263 0.826330
-1.55240405 1.60330451 -0.13153477 -0.533526 0.191948 -0.823715
-1.54200256 1.62712729 -0.13192287 -0.501232 0.161163 -0.850172
-1.70230317 1.71109438 0.93279767 -0.658594 0.428503 0.618578
1.14734566 0.05532113 0.13530147 0.902275 -0.361203 -0.235440
1.13531435 0.02811801 0.13621381 0.858367 -0.468881 -0.208225
1.14874876 0.07788458 0.11366525 0.901825 -0.302576 -0.308480
1.14666378 0.06625903 0.11933889 0.902312 -0.323415 -0.285018
1.15318835 0.11591643 0.09186433 0.875511 -0.304987 -0.374785
1.14912617 0.09743603 0.09762576 0.883640 -0.299565 -0.359779
1.14458168 0.10629587 0.08075660 0.856924 -0.303077 -0.416924
1.15129972 0.15805641 0.05840085 0.827827 -0.282178 -0.484848
1.14813590 0.14253500 0.06227003 0.828569 -0.294914 -0.475920
1.13831043 0.18877487 0.02595002 0.807844 -0.066964 -0.585580
1.14252067 0.16358417 0.04192007 0.819067 -0.236002 -0.522907
0.25484371 0.25972265 1.04044640 0.333904 -0.408451 0.849515
0.24515291 0.27937266 1.05168629 0.357954 -0.351809 0.864927
-0.87774515 -0.26553825 -0.49178529 -0.911630 0.275677 -0.304849
-1.14122558 0.80509740 0.90431440 -0.015264 -0.207821 0.978048
-1.11529624 0.76598299 0.89695317 -0.131579 -0.073358 0.988588
-0.88700891 -0.30791724 0.80961472 -0.003226 -0.994541 0.104292
-0.88378739 -0.30904311 0.78729165 -0.011184 -0.999441 0.031518
0.89302295 0.33309263 0.52512813 -0.015127 0.570717 0.821007
0.44136152 0.36584029 -0.54278332 0.620775 -0.032230 -0.783326
0.43511114 0.35465831 -0.54732990 0.596580 -0.067240 -0.799732
0.12988055 1.56967056 0.55231506 0.045699 0.851671 0.522081
0.12523057 1.55655682 0.57180679 0.031818 0.831416 0.554739
0.14837539 1.58152270 0.52765518 0.095285 0.904514 0.415662
0.13793169 1.58655739 0.51872796 0.088459 0.918611 0.385136
0.13645534 1.59717941 0.48879656 0.096378 0.946616 0.307617
0.11558523 1.61536181 0.42606759 0.059657 0.975216 0.213062
0.11078590 1.62675965 0.36969554 0.037719 0.988689 0.145160
0.10545074 1.62908089 0.34968314 0.034339 0.993617 0.107448
0.09283096 1.63110590 0.33500388 0.018445 0.994943 0.098735
0.09749803 1.63244569 0.31727907 0.030935 0.997401 0.065071
0.08272371 1.63397229 0.28730997 0.021610 0.999190 0.033958
0.06900679 1.63495934 0.24827336 -0.020974 0.999776 0.002996
0.05603177 1.63429546 0.23474275 -0.062043 0.997949 -0.015774
-0.97695035 0.55523789 0.87613851 0.148109 -0.234614 0.960739
-0.97823697 1.72791767 0.37973976 0.837277 0.498706 0.224189
-0.99228948 1.75860929 0.37240884 0.887637 0.406157 0.217109
-1.26881683 0.51510394 -0.34883109 -0.204565 -0.375761 -0.903857
-1.26658475 0.49506843 -0.34007946 -0.214545 -0.463597 -0.859679
-0.83164275 -0.05873022 0.81011146 -0.044085 0.412797 0.909756
-0.84783006 -0.09427772 0.82553899 0.056370 0.474330 0.878541
-0.81973368 -0.10605435 0.83128321 0.129697 0.337212 0.932452
0.17609325 1.61129701 0.07839642 0.150915 0.972703 -0.176279
0.15305111 1.61667430 0.08815097 0.122200 0.978834 -0.164168
0.15094216 1.61631072 0.08328699 0.115030 0.978371 -0.171926
0.13148627 1.62217915 0.10822851 0.094700 0.984164 -0.149842
0.10696512 1.62434649 0.11088151 0.040650 0.986045 -0.161437
0.09442852 1.62664497 0.12261803 0.019101 0.989903 -0.140452
0.06731820 1.62756753 0.13482854 -0.018625 0.993685 -0.110653
0.05171406 1.62849164 0.14389668 -0.034137 0.994381 -0.100209
0.04340837 1.62990808 0.16332619 -0.044727 0.995992 -0.077454
0.02597279 1.62921798 0.16719756 -0.065318 0.995266 -0.071960
0.01893700 1.62960052 0.17959423 -0.069166 0.995776 -0.060383
-1.08870506 1.82924914 0.57043648 0.843351 0.123808 0.522907
-1.09254718 1.87229252 0.57870835 0.916446 -0.040995 0.398052
-0.76199317 2.15674376 -0.22502893 -0.161163 -0.501232 -0.850172
-0.78079033 2.19942045 -0.23935089 -0.358507 -0.292506 -0.886517
0.30863324 0.10419317 0.97496283 0.455371 -0.311405 0.834065
0.30489856 0.14289708 0.98846370 0.468968 -0.156323 0.869271
-1.25373209 2.15253925 -0.76843596 0.943365 -0.273260 -0.188124
-1.25606143 2.13063622 -0.75219411 0.926797 -0.312705 -0.207999
-1.53018975 0.39978820 0.05151502 -0.726497 -0.631114 -0.271840
-1.51512611 0.37705261 0.05493506 -0.795246 -0.532799 -0.289324
0.75247300 1.18541825 0.43242055 0.842160 0.511258 0.171413
0.74816722 1.20160365 0.40268040 0.836197 0.529444 0.143053
0.74224520 1.21204638 0.39688873 0.831973 0.538508 0.133527
0.74221671 1.21992290 0.36067009 0.830819 0.550542 0.081509
0.73624623 1.22931564 0.35490021 0.821586 0.566171 0.066692
0.74171883 1.22212410 0.34843910 0.827088 0.558461 0.063622
0.73163646 1.23780274 0.32622406 0.808153 0.588380 0.026428
0.72467786 1.24739182 0.31086272 0.807902 0.588951 0.020786
0.72859609 1.24308956 0.28800604 0.808153 0.588380 0.026428
0.71079618 1.27077997 0.22857325 0.807966 0.589227 -0.001367
0.71080685 1.27054894 0.22367901 0.806995 0.590518 -0.006851
0.70357132 1.27883732 0.18410672 0.812434 0.582683 -0.020761
0.68259943 1.30415213 0.10875650 0.794882 0.603653 -0.061364
0.67691976 1.31005156 0.09707196 0.777286 0.623281 -0.085719
0.67190850 1.31404793 0.08430226 0.764849 0.635164 -0.107580
0.67341846 1.30952132 0.06773864 0.767288 0.626693 -0.136108
0.66004217 1.31706965 0.03603319 0.734966 0.644843 -0.209768
-0.04070444 -0.30689692 0.88410091 0.038484 -0.995083 0.091262
-1.34580791 2.44020438 -0.82688391 0.581802 0.765696 0.274255
-0.70202130 0.73656088 -0.48941550 -0.438805 -0.038915 -0.897739
0.65664232 0.45771435 -0.35901198 0.814347 -0.017913 -0.580102
0.66732508 0.44600156 -0.34395060 0.778406 0.032258 -0.626932
-0.48287171 0.60903263 -0.76060599 -0.376883 -0.006388 -0.926239
-0.49196449 0.63201255 -0.75713265 -0.359884 0.027088 -0.932604
0.36667401 1.49215162 -0.05560221 0.415635 0.803989 -0.425264
0.34651518 1.50611639 -0.04828457 0.385536 0.811065 -0.439927
-0.93209124 2.04733682 0.18647361 0.589472 -0.017946 0.807590
-0.92513019 2.03795218 0.17957434 0.609742 -0.091680 0.787280
-0.94978017 1.99827397 0.19271260 0.666913 -0.172451 0.724905
-0.95039117 2.01577830 0.19685808 0.647854 -0.107730 0.754108
-1.34004784 -0.32791492 0.10037869 -0.019944 -0.998252 0.055633
-1.33138645 -0.32498193 0.15386781 -0.057136 -0.997187 0.048512
-1.32958925 -0.32552594 0.14767253 -0.054757 -0.997432 0.046167
-1.33029139 -0.32297933 0.18430246 -0.069461 -0.995603 0.062845
0.06495454 1.11957562 0.84893876 0.211316 0.192710 0.958232
0.06443767 1.11144388 0.85082304 0.195754 0.236255 0.951769
-1.75918865 0.93815589 0.47996059 -0.898476 0.116704 0.423226
-1.75029957 0.96913123 0.48717245 -0.874939 0.171470 0.452858
-1.64727581 1.07326102 -0.07481913 -0.749953 0.299022 -0.590048
-0.42032522 1.10224962 -0.45348656 0.008562 0.287450 -0.957757
-0.42499727 1.14609289 -0.44291064 -0.079389 0.305844 -0.948766
-0.72992253 -0.31420290 0.58836251 0.046355 -0.997164 0.059291
-1.42465186 0.67313570 0.81569278 -0.482343 -0.232803 0.844481
0.00376049 -0.31305757 -0.34464923 -0.076871 -0.921102 0.381657
-0.00659248 -0.31792787 -0.36474234 -0.058125 -0.983380 0.172003
-1.16986692 1.95466614 0.67919117 0.908347 -0.130566 0.397314
-1.17017686 1.96774292 0.68401313 0.885505 -0.056114 0.461229
-1.18273485 1.92807698 0.70112050 0.897696 -0.113792 0.425668
-1.17537415 1.95803261 0.69315273 0.884518 -0.053317 0.463449
-1.24951720 2.32846355 -0.91262323 0.984538 0.155955 0.079763
-0.59824979 -0.01164968 0.86949342 -0.415964 0.738212 0.531052
-0.60756093 -0.02936781 0.88264012 -0.437240 0.689941 0.576891
0.04837062 1.59465432 -0.01080482 -0.011707 0.914445 -0.404541
0.05732214 1.60034370 0.00203662 0.006348 0.933196 -0.359312
0.06087400 1.60877895 0.02733713 0.011006 0.959928 -0.280030
-0.40714478 2.31784606 -0.36100736 -0.166301 -0.552840 -0.816525
-0.42189544 2.36239290 -0.38521257 -0.182201 -0.475500 -0.860641
-0.41875923 2.36930060 -0.38984308 -0.191611 -0.461946 -0.865963
-0.40458730 2.35619116 -0.38615271 -0.212592 -0.483986 -0.848860
-0.69535136 -0.31422606 0.39100188 -0.443515 -0.896243 0.006580
-0.68693328 -0.31796694 0.36729237 -0.363847 -0.930982 0.029781
0.25330898 -0.00021382 0.95763683 0.540552 -0.523712 0.658429
-0.94867992 -0.06902754 0.81492156 0.055804 0.676807 0.734042
-0.77884912 -0.30975899 0.74973238 0.015222 -0.999562 0.025370
-0.69835413 2.22678232 -0.27366728 -0.169274 -0.374110 -0.911805
-0.70295745 2.22815752 -0.27360857 -0.180582 -0.362587 -0.914287
-0.73563027 2.27216148 -0.27786043 -0.371222 -0.110956 -0.921891
-1.42896843 -0.31417841 0.03227682 -0.541774 -0.840497 0.006789
-0.51462156 -0.06719341 -0.53870678 -0.166629 0.488091 -0.856739
-0.68613327 0.94045985 0.87692475 -0.331042 0.289476 0.898117
-0.67803746 0.95780772 0.87439001 -0.343711 0.328570 0.879719
-1.35298562 -0.26592678 0.27816418 -0.740307 0.076783 0.667870
-0.46514925 1.50718200 0.02099930 -0.204688 0.943764 -0.259638
-0.46076709 1.51098871 0.03147527 -0.203917 0.945682 -0.253186
-1.80085814 1.31974423 0.87299067 -0.725362 -0.466423 0.506260
-1.15639019 0.17230712 0.02456297 -0.786895 -0.550353 -0.279119
-0.77554595 1.50544906 0.44609693 -0.063974 0.902440 0.426039
0.61341965 0.73914391 -0.40173560 0.487474 0.045314 -0.871961
0.61708617 0.75768417 -0.39741617 0.444511 0.120714 -0.887602
-0.37649778 -0.08948851 -0.55748224 -0.119369 -0.227187 -0.966508
-1.79952109 1.82465649 0.57302588 -0.942074 -0.211036 0.260691
0.16101512 0.33477628 1.10234499 0.224824 0.017843 0.974236
0.29503420 1.34006107 0.72922659 0.152727 0.406796 0.900661
0.30753365 1.32722807 0.73257834 0.147405 0.422179 0.894448
0.31881583 1.30057096 0.74407506 0.153390 0.422897 0.893101
0.33148846 1.29873812 0.74257445 0.175279 0.412846 0.893776
0.34420207 1.27389562 0.75042444 0.245853 0.391875 0.886561
0.35262582 1.25734723 0.75437516 0.279253 0.422695 0.862175
0.36539745 1.24775898 0.75464863 0.252825 0.428440 0.867478
0.37134376 1.24742472 0.75260293 0.237959 0.420544 0.875510
0.37945157 1.22244883 0.76570845 0.270122 0.519945 0.810365
-1.26279116 0.74337798 0.89906371 -0.100618 -0.197509 0.975124
-1.26438439 0.75730246 0.90214610 -0.140743 -0.155689 0.977728
-1.28570175 0.77720767 0.89898586 -0.257439 -0.001197 0.966294
-1.27925289 0.78976518 0.90053695 -0.258266 0.056145 0.964441
-0.29594409 -0.21463349 0.77110511 -0.001057 -0.996331 0.085581
-1.02886140 1.93746316 -0.03910647 -0.102964 -0.555428 -0.825166
-1.03903139 1.91106725 -0.02111687 0.083118 -0.497302 -0.863587
-1.03665459 1.92027199 -0.02733963 0.004027 -0.514097 -0.857723
-0.51384550 0.26701269 0.80497456 -0.822007 -0.134296 0.553416
-0.49499196 0.22337106 0.82545733 -0.804481 -0.085214 0.587834
-0.48859826 0.21207629 0.83216709 -0.792424 -0.079387 0.604783
-0.71285713 0.12592694 -0.21276760 0.097018 -0.180527 -0.978774
-0.70950437 0.11434370 -0.21207011 0.096637 -0.174926 -0.979828
-0.42896330 1.23490751 -0.38009366 -0.128952 0.603258 -0.787052
-0.41623598 1.21926105 -0.39414373 -0.043724 0.613549 -0.788445
-0.94490242 2.26987791 -0.13945158 -0.634932 0.209574 -0.743600
-0.91961825 2.27929735 -0.15831602 -0.625190 0.178844 -0.759705
-0.95171607 0.82323778 -0.43474054 -0.052861 0.104597 -0.993109
-0.96254122 0.80037516 -0.43772712 -0.108656 0.069769 -0.991628
-0.96323937 0.79026181 -0.43788117 -0.120215 0.037076 -0.992055
-1.80455792 1.80915213 0.52536583 -0.906797 -0.419243 0.044201
-1.80966449 1.82375598 0.53647447 -0.930594 -0.335014 0.147516
-0.43225151 0.69274795 1.12012732 -0.470470 0.150026 0.869569
-0.43043399 0.71432918 1.11608076 -0.454420 0.247728 0.855648
-0.75253356 2.15417957 -0.22492199 -0.139214 -0.520220 -0.842610
-0.75559115 2.17293119 -0.23506349 -0.198299 -0.469656 -0.860291
0.25730225 0.62808526 -0.61632705 0.399431 0.193180 -0.896179
0.25524756 0.64569592 -0.61267751 0.362340 0.162137 -0.917835
-1.03975594 -0.09060559 0.86514461 0.162852 0.725985 0.668150
-1.01587057 -0.12115341 0.88419652 0.280961 0.573034 0.769866
-1.17033267 0.67995912 0.87778455 -0.180563 -0.140157 0.973526
-1.19747365 1.88966012 0.71812552 0.804019 -0.157210 0.573444
-1.19410968 1.91238761 0.71869749 0.805064 -0.109582 0.582978
0.07050906 1.16776025 -0.40376255 0.035993 0.083985 -0.995817
-1.40979409 0.70366085 0.83204246 -0.509313 -0.187800 0.839840
-1.40234876 0.72085500 0.84091324 -0.529599 -0.133500 0.837677
-1.05638659 1.52175117 -0.12047059 0.001370 0.612421 -0.790530
-0.35904872 -0.32203457 -0.41948804 0.023228 -0.964560 0.262840
-0.35330856 -0.32437292 -0.43333209 0.023918 -0.987462 0.156035
-1.61609793 1.60382283 -0.09469069 -0.362668 0.273120 -0.890998
-1.60984910 1.62348723 -0.09081718 -0.434829 0.239231 -0.868154
-1.58335006 1.64354503 -0.10268181 -0.527490 0.117704 -0.841368
-1.58024585 1.65902865 -0.10297444 -0.538583 0.114685 -0.834731
-0.95616716 0.78376210 -0.43906045 -0.124116 0.030190 -0.991808
-0.92563450 0.73862869 -0.43923286 0.003207 -0.097280 -0.995252
-0.93427801 0.75493056 -0.44001231 -0.039403 -0.052183 -0.997860
-0.77855515 0.77359939 -0.46229848 -0.316352 -0.355707 -0.879428
-0.78093189 0.76979274 -0.45973483 -0.309842 -0.380053 -0.871526
-1.83636081 1.55321491 0.71514887 -0.949905 0.312517 -0.003706
-0.69180214 1.23456764 0.71250784 -0.097857 0.623654 0.775551
-0.70370924 1.25746465 0.69338083 -0.043843 0.618039 0.784924
-1.24084723 1.51288104 -0.17033973 0.186818 0.141066 -0.972214
-1.25545597 1.55596542 -0.16690890 0.234166 0.108765 -0.966093
0.33262083 1.46286404 0.60760331 0.342741 0.739085 0.579898
-0.74099410 -0.31671849 0.54501975 -0.050502 -0.998711 0.005153
-0.74375916 -0.31485051 0.58055586 0.017598 -0.998944 0.042442
-0.87134922 0.47369918 -0.36352819 -0.171558 -0.179297 -0.968721
-0.86815482 0.49044260 -0.36710170 -0.141839 -0.198064 -0.969872
-0.17537746 1.14646518 -0.45252997 -0.106240 0.164855 -0.980579
-0.16033080 1.15472102 -0.45198780 -0.098280 0.163800 -0.981586
-1.47530413 1.00281978 -0.26129371 -0.477153 0.284427 -0.831521
-1.44500625 1.04251611 -0.26289022 -0.406196 0.316616 -0.857181
-1.43390357 1.07880259 -0.25318876 -0.413996 0.360475 -0.835862
-1.41114044 1.09662497 -0.25706503 -0.431382 0.361855 -0.826420
-1.39923322 1.12103105 -0.25255856 -0.435579 0.359551 -0.825224
-1.38910997 1.12718296 -0.25515902 -0.431382 0.361855 -0.826420
-1.38465858 1.13705969 -0.25316337 -0.428804 0.362348 -0.827545
-1.36082244 1.17686510 -0.24774554 -0.419665 0.356793 -0.834614
-1.35617208 1.18197656 -0.24774210 -0.419031 0.353116 -0.836494
-1.34284246 1.20746446 -0.24428940 -0.436478 0.330096 -0.836973
-1.31891811 1.23390174 -0.24739781 -0.476943 0.334335 -0.812863
-1.31390941 1.24664629 -0.24561583 -0.478826 0.363523 -0.799110
-1.28948855 1.27400911 -0.24514903 -0.428362 0.494012 -0.756609
-0.51604223 2.33612776 -0.18556969 0.364720 0.523576 0.769965
-0.51962507 2.31850958 -0.16954206 0.331563 0.590344 0.735908
-1.09500277 0.45532987 -0.33511120 0.117916 -0.534260 -0.837056
-1.11278689 0.43013638 -0.32107076 0.069791 -0.565450 -0.821825
-0.13392620 0.99023962 -0.50563079 -0.014527 0.896697 -0.442406
-0.13200307 0.98837215 -0.50989544 -0.014383 0.908744 -0.417107
-1.21449995 2.11778378 0.34667945 0.128771 0.991644 0.007704
-0.74235249 -0.18518451 -0.57492274 -0.448421 0.350181 -0.822370
-0.74129373 -0.17154314 -0.56857276 -0.472082 0.403947 -0.783559
0.31801522 0.67263365 -0.58496267 0.442471 0.006565 -0.896759
-1.70370686 0.66941684 0.02746010 -0.806992 -0.556810 -0.196790
-1.71901858 0.70336539 0.01392811 -0.863209 -0.355439 -0.358516
0.30180636 0.76586753 -0.58799052 0.549930 0.220280 -0.805639
0.28731841 0.75704777 -0.59995562 0.503560 0.119758 -0.855620
-1.39145362 -0.25940025 0.22064848 -0.696896 0.333016 0.635166
-1.41169477 2.40264153 -1.02431250 -0.814007 -0.324022 -0.482082
-0.37947792 0.44514900 -0.77423233 -0.014925 -0.177956 -0.983925
-0.39361748 0.40708807 -0.76638013 -0.039266 -0.198710 -0.979271
-0.36238298 0.40257281 -0.76546621 -0.045407 -0.159507 -0.986152
-1.36220920 1.42259228 1.05051994 0.501999 0.020296 0.864630
-1.37611854 1.39926541 1.05650496 0.369626 -0.090714 0.924742
-0.99065202 0.03479214 0.70676726 -0.720385 0.445480 0.531595
-1.80776060 1.79055214 0.44220951 -0.943164 -0.105092 0.315275
0.24984194 -0.10439074 0.88650155 0.221544 0.015401 0.975029
0.24947102 -0.06968622 0.89923489 0.390611 -0.451694 0.802119
-1.11452460 0.01682618 0.18594064 -0.780261 0.266392 0.565886
0.21107692 1.19800615 0.79464114 0.098826 0.304383 0.947409
0.22269073 1.18691456 0.79909384 -0.014420 0.423416 0.905821
0.66078943 1.22841060 0.58430946 0.727329 0.445675 0.521887
-1.24245083 0.74027777 0.89944237 -0.040615 -0.254768 0.966149
-0.42509583 0.48583889 -0.77841896 -0.173380 -0.088509 -0.980870
-1.45680022 1.98758638 -0.71058577 -0.724373 -0.672956 -0.149714
-1.47014153 1.99716771 -0.70800805 -0.872345 -0.458897 -0.168604
-1.55412757 2.55136275 -0.99419886 -0.893982 0.444950 -0.053067
-1.55483532 2.53184509 -0.99876249 -0.886553 -0.114531 -0.448225
-0.97420049 1.99622536 -0.07847643 -0.172261 -0.415454 -0.893154
-0.96782541 2.01731420 -0.08937580 -0.220232 -0.409425 -0.885364
0.77399743 0.81277472 0.68733090 0.851798 0.095595 0.515074
0.77500474 0.78554976 0.68956131 0.841104 0.057571 0.537801
-1.81818199 1.77342391 0.38258904 -0.983659 -0.165732 0.070346
-1.82028401 1.78354430 0.36907303 -0.967267 -0.253532 0.010814
-1.01546705 1.23808432 0.72741139 0.006895 0.616405 0.787399
-0.98029119 0.10838439 -0.20070507 -0.418328 -0.275336 -0.865559
-0.98989165 0.12576059 -0.20048039 -0.489492 -0.247048 -0.836280
-0.94947243 0.06443026 -0.19547020 -0.326607 -0.308711 -0.893323
-0.94986570 0.08579358 -0.20370083 -0.277620 -0.295062 -0.914257
-0.38087165 -0.30429694 0.99566245 0.012279 -0.990141 0.139535
-1.00726473 0.61676520 -0.41556194 0.122225 -0.417252 -0.900534
-1.00558233 0.63005596 -0.42111757 0.119356 -0.358067 -0.926036
-0.94777548 0.70601070 -0.43490997 0.012396 -0.152130 -0.988283
0.63071191 0.46290332 0.82469237 0.563288 -0.284024 0.775910
-0.93741006 0.76431912 0.89338100 0.382290 0.188981 0.904511
-0.93614912 0.78589123 0.88695109 0.394801 0.294195 0.870391
-0.98004359 0.82193273 0.88729072 0.143313 0.210451 0.967043
-0.99087751 0.85048342 0.88702494 0.037268 -0.056434 0.997711
-0.08148192 0.18756598 1.08740270 0.203658 -0.402921 0.892288
-0.08834878 0.16059230 1.08015513 0.204177 -0.206846 0.956831
0.23202084 1.02202499 -0.44493172 -0.157974 0.391376 -0.906570
0.22841786 1.00204933 -0.45196018 -0.142333 0.264713 -0.953765
0.22531480 1.04241455 -0.43280303 -0.171413 0.511258 -0.842160
0.22582196 1.02101755 -0.44417250 -0.167330 0.390436 -0.905296
-1.62901545 1.16968453 0.57982868 -0.843841 -0.177729 0.506305
-1.62903154 1.14605069 0.57975680 -0.798436 0.125447 0.588865
-1.05445468 1.42557037 -0.22046231 -0.275987 0.687573 -0.671620
-1.04392993 1.44288981 -0.20643353 -0.301323 0.704162 -0.642931
-1.04238200 1.44817758 -0.20129578 -0.301192 0.710298 -0.636208
-1.02460063 1.46961999 -0.18528010 -0.272000 0.739648 -0.615578
-0.16656062 -0.31971496 -0.39772707 0.001122 -0.986665 0.162760
-0.96039945 0.27813771 0.73772615 -0.656380 -0.254644 0.710156
-0.98036790 0.30227050 0.73287624 -0.552365 -0.439570 0.708288
-1.26349926 2.23901653 -0.46557158 0.833244 0.519836 0.188346
-1.25314569 2.21719599 -0.45281544 0.873569 0.449306 0.187088
-1.26525521 2.22627640 -0.42820412 0.813521 0.525302 0.249480
-1.27331126 2.22826290 -0.40795010 0.793993 0.538274 0.282554
0.08112840 0.62873042 -0.68485320 0.283950 0.026039 -0.958485
0.07012311 0.61733931 -0.68912500 0.319062 0.036864 -0.947017
-0.91346574 0.22655600 -0.25665048 -0.193345 -0.328828 -0.924386
-0.47434354 2.47358751 -0.25621632 0.594062 0.049388 0.802901
-0.55805814 0.61211127 -0.72461170 -0.630856 -0.018104 -0.775689
0.53162897 0.30569971 0.88063127 0.414300 0.098379 0.904808
0.51046270 0.31000835 0.88955522 0.421479 0.089823 0.902379
-1.21965921 2.44483733 -1.21756518 0.984407 0.111782 -0.135822
-1.49313295 0.31792912 0.17470948 -0.707432 -0.704562 -0.055963
-1.50370014 0.32885697 0.18614650 -0.754288 -0.655596 0.035247
-1.51495528 0.34419173 0.17824307 -0.796033 -0.604985 0.017997
-1.52123773 0.35332295 0.18945138 -0.773939 -0.633223 0.006898
-1.63823569 0.51071459 0.37184921 -0.757273 -0.625173 0.188934
-1.52278423 1.13619649 0.71540087 -0.680107 -0.337607 0.650750
0.20973846 -0.00402807 -0.56327903 0.227627 -0.412110 -0.882242
0.21772011 0.02756538 -0.57155001 0.307238 -0.340210 -0.888742
0.23105410 0.02994328 -0.56740922 0.337114 -0.331067 -0.881334
0.24331266 0.06200396 -0.57592088 0.354140 -0.344942 -0.869253
0.26230192 0.06974590 -0.57079923 0.350327 -0.371934 -0.859614
0.26663560 0.08347565 -0.57479763 0.330298 -0.327282 -0.885319
-0.83978176 2.16623855 -0.20234497 -0.364966 -0.304391 -0.879856
-0.82836932 2.15174699 -0.20218144 -0.343455 -0.368097 -0.864027
-0.85406947 2.19268727 -0.20312062 -0.423898 -0.169270 -0.889752
-0.84415972 2.18281960 -0.20607670 -0.399209 -0.235963 -0.885976
-0.86590666 2.23526525 -0.20036012 -0.532286 -0.009481 -0.846511
1.07941651 0.31659797 0.00617871 0.403981 0.413561 -0.815945
1.10164309 0.32681581 0.02108410 0.408770 0.402408 -0.819131
1.10998988 0.35543466 0.04123711 0.393344 0.514122 -0.762206
1.12370992 0.37561306 0.06534283 0.468224 0.599126 -0.649472
-1.03491592 -0.06672049 0.39765242 -0.835162 0.437167 -0.333751
-1.03072059 -0.04823761 0.40694633 -0.869284 0.319298 -0.377352
-1.03824008 -0.08609259 0.37415239 -0.793430 0.601260 -0.094629
