-1.61908591 1.75234532 0.97042400
-1.62980282 0.57678717 -0.05388765
-0.22086284 2.29514742 -0.33314806
-0.95133692 -0.32963175 -0.23878528
-0.51291609 -0.24407625 0.30900139
-0.59704828 -0.28110874 0.42913502
0.41222146 -0.20681190 -0.23645298
-0.62677550 2.19963598 0.01492215
0.33997735 1.40307689 0.67774087
-0.25366169 2.32650852 -0.41745946
-1.32837701 -0.22929519 0.70834136
-1.46365690 2.11691475 0.20122926
0.88812238 0.22028112 0.60912609
0.81429082 -0.13803375 0.54373527
-0.78377539 -0.32779807 0.05706583
-0.48823863 0.34140608 0.88347793
0.31965339 -0.30326220 0.37027246
0.33551309 -0.30841476 0.44317308
0.37415540 1.55198169 0.34117487
-1.77944732 1.77881646 0.75996369
-0.31531903 0.06744156 -0.65732241
0.33174631 0.34184682 1.02210021
0.69297558 0.33561814 0.77934772
-1.80971277 1.27574956 0.74180436
-1.27989984 1.30005991 -0.22998740
0.80289239 1.06245351 0.47678506
-1.09920359 2.08072686 0.36385760
-1.72563672 1.74291003 0.04743512
-0.98591065 1.33709383 0.64445126
-1.05904615 1.31699944 0.68399793
0.48731390 0.07698897 0.84512240
0.50801271 -0.29574782 0.04965931
0.02531872 -0.28188154 0.76326436
0.07383633 -0.23366320 0.71131217
0.08445193 -0.22642310 0.69643533
0.09476308 -0.26316047 0.71657199
-1.15604877 -0.08013397 0.24172476
-1.32417727 1.29010487 0.93206203
-0.77715760 2.40339184 0.03029438
-1.66118777 1.39972389 0.98392934
0.32043982 0.02304804 -0.52789140
-0.08441085 -0.23333330 0.32259038
0.58278781 -0.19278911 0.58029151
0.60348171 -0.17555168 0.57947451
-0.42887378 0.24520546 0.92452437
-1.27721620 2.05857944 -0.00070505
-1.75843656 1.04390764 0.16504218
-1.35945773 1.94765854 -0.57142371
0.58748490 1.16296279 -0.24182248
-0.88818485 1.54791057 -0.07810228
-1.63648212 1.20134377 0.79287040
0.09528754 1.37692010 -0.30950597
-0.82236749 -0.03414686 -0.23762302
-1.16460967 -0.16326262 0.90912068
-0.94616765 -0.20085166 -0.24835688
0.00629564 -0.21566421 -0.19372019
-0.93460554 -0.30808315 0.80765051
-1.04399002 -0.30958527 0.84415793
-0.04707579 -0.12943389 -0.51070589
-1.09676027 -0.02956833 0.75110197
-1.12639070 -0.03048204 0.69096196
-1.03265929 -0.32943666 0.11100053
0.92591947 0.45530596 0.08994560
-0.11945494 0.96007252 1.04118443
-0.11960597 0.95774579 1.04448009
0.88093448 -0.01624715 0.63021219
-0.70645291 2.40805387 -0.00399050
-0.08010005 -0.23808524 -0.29515111
-0.79234129 0.07477727 -0.22057486
-1.24890411 0.56400871 0.84374076
-0.65335149 1.02290535 -0.44860741
-1.60933924 1.19224966 0.78129220
0.39952952 1.53941453 0.17732826
0.40595067 1.52699244 0.10008544
-1.53963578 0.59410244 0.69628298
-0.48160928 1.53136826 0.24480072
-1.69818163 1.15072870 0.45027205
-1.48751128 2.45683289 -0.96992743
-1.31221402 2.44156909 -0.90387523
-0.01590418 1.58601010 -0.02311020
-0.05707202 1.04337442 -0.45938849
-0.98432463 -0.33068129 0.07726184
-0.66099733 -0.29174635 0.11157458
-0.71108031 -0.31445333 0.11478657
0.47767496 -0.10378781 0.79637563
0.91614491 0.76561403 0.20182304
0.90672934 0.86474985 0.13896866
-0.91460538 -0.32280290 0.54590476
-0.66473252 2.35768104 -0.09113467
-1.36371541 0.26180464 0.02531290
-1.22844231 0.20466255 0.02655419
0.11012398 0.46592963 1.13002467
-0.00782154 -0.28591669 0.93298185
-1.09567070 0.13006584 0.23831190
0.49163449 -0.29651788 0.42327863
0.85131109 -0.11497877 -0.03133952
0.90677708 -0.11104778 0.00420383
-1.19792652 1.08999622 -0.36566249
-0.99755192 2.22905445 0.13671006
-0.96111816 1.43918443 0.58134973
-1.42857838 0.43635160 -0.16644344
-1.07046413 2.20299387 -0.03976828
0.29933146 -0.31541103 -0.01286053
-0.37124789 2.53380036 -0.47793835
-0.97120696 -0.30883664 0.66122192
0.32918945 0.00344780 0.90689260
0.29528862 -0.28632790 -0.38402155
-1.42812705 1.41284192 1.07028568
-0.57381034 -0.28120744 0.79106712
-0.55314648 0.68119109 0.96841317
-0.68277949 -0.08185016 0.88929564
-0.60842365 -0.11405051 1.00112152
0.80658424 0.67974889 -0.22952250
-1.63439667 0.57509470 0.56538308
-0.85754263 2.36310005 -0.18478724
0.76611203 0.11828748 -0.11605269
0.54516941 0.59805679 -0.46149692
0.10410136 0.74987823 1.12953615
-0.37045819 2.25698853 -0.31669179
-0.86209399 1.94716835 0.00649161
-0.83798528 1.96156514 0.02059573
-1.53306007 0.72511834 0.76332480
-1.57291400 0.92447919 -0.20652044
-1.17958057 0.85319120 0.90627187
0.78274852 0.24573161 0.64621067
-0.19714139 -0.29918966 0.84473687
-0.19047956 -0.22812656 0.76490003
-0.21608366 -0.22175965 0.78058010
-1.53833330 2.08193064 0.04790355
0.27243358 1.56773412 0.48146075
0.01231565 1.60727942 0.02676709
-1.10843825 0.14129333 0.30383649
-0.69658506 2.09435034 -0.18011993
-1.72924268 1.78176916 0.07953245
1.13853943 0.01863452 0.17887120
-1.50686681 2.03932214 -0.42578337
-1.74637926 1.69739306 0.05699950
1.19423854 0.39095953 0.25527215
0.41751340 1.52442169 0.40138629
-0.53431982 -0.27715722 0.80347651
-1.67905700 0.85656935 0.60305792
-1.35901093 -0.17225744 0.19794118
-0.95156366 -0.28790542 0.22562495
-0.93012071 -0.29412946 0.25897843
-1.05595922 1.94531763 -0.03913188
-1.26632571 0.69108242 0.88707709
0.84907472 0.65796858 0.57915121
-1.40616477 2.25525737 -0.95449615
-0.37426645 2.71841264 -0.43641412
-1.41808641 0.37358969 -0.08835630
-1.49878526 0.41131982 -0.04669780
-0.48501971 2.39004254 -0.38367343
-1.25680482 1.29786515 -0.24429607
-0.09216208 -0.31487265 -0.46355787
-0.18959549 -0.31639123 -0.47747290
0.02013088 -0.31965062 -0.43192530
-0.51519257 -0.22628619 -0.29921195
-0.21913010 -0.10141994 -0.55889970
-0.58561611 0.82385957 -0.54086763
-0.52575952 0.88001281 -0.54195380
-1.37537920 -0.32139468 0.16565944
-1.18005419 1.55686057 -0.14508155
-0.62927562 0.97253603 0.88247538
-1.40007973 1.86838675 -0.26797810
-1.23577046 1.92682445 -0.09763820
-1.66146779 2.00804591 0.65538639
-1.04447269 -0.32605374 0.29373461
-0.99129671 -0.31940827 0.32335481
-0.75405031 -0.25061584 -0.11813331
-0.79079491 -0.28871292 -0.08684006
0.53280622 -0.30719197 0.17743015
-0.83611453 1.49970460 0.43751758
-0.80023938 1.41239500 0.58123201
-1.07147646 1.96529698 0.48384708
0.49784237 1.02895296 -0.37337944
0.45766082 1.07526529 -0.36300704
-1.75352550 1.43259466 0.95381284
-1.81167865 1.39833760 0.90005034
-0.85835850 1.42452979 0.54670006
-0.32698289 -0.21216959 0.78330493
-1.56409585 2.22081351 -0.46244702
0.44386396 1.42938435 -0.09138916
-1.21346533 -0.14722875 0.29980025
-1.17460263 0.37896988 -0.27461982
-0.78470135 -0.29862818 -0.23924230
-0.75131500 1.24962628 0.70300907
-0.44933143 2.34564924 -0.37063506
-0.00326926 1.62941110 0.19840233
-0.42727858 -0.23762350 0.30652130
-0.98149788 1.77631378 0.15723589
0.95040357 0.19755130 0.62553781
1.00340605 -0.10881494 0.35835820
0.19770910 -0.31552625 0.03311388
-1.30579662 1.20490611 -0.26591399
-0.07816137 0.18680902 -0.67796189
-0.67933261 1.30353045 0.66021293
-0.86830676 1.09914124 -0.41488272
0.30346319 -0.29298276 0.20504484
0.36760914 -0.28504401 0.13103966
-1.06135631 1.82520843 -0.01046728
-1.03642821 1.74962497 0.00237428
-1.04847705 1.67648661 -0.06086948
0.29329830 1.48738182 -0.11978053
0.92284274 0.68729979 0.18968195
-0.54938519 -0.24085245 0.19274397
-0.56455725 -0.24962303 0.17709762
-0.31419301 0.06872746 1.00292075
-0.61217320 1.49731052 0.38534147
1.19386327 0.13690983 0.31079578
-1.09072423 1.90483928 0.56877631
-1.81599414 1.80545914 0.42990255
-1.52805626 1.98069656 -0.17130148
0.36172605 1.56133556 0.25245520
-1.37694860 2.02809095 -0.89580566
-0.06145371 0.98486298 -0.51366931
0.86224777 -0.18049441 0.07667989
-0.00829229 -0.29034069 0.30873746
-0.41105127 0.48026648 1.06878960
0.67915338 1.18149900 -0.13744372
-0.67780530 0.63824099 -0.50229466
-1.63237393 1.81740022 0.90840864
-0.06247864 0.44318870 1.16481352
0.78498721 0.58458519 0.68783605
0.22367778 -0.30031258 0.34596488
0.22740446 -0.29966763 0.31301704
-0.28911823 -0.22911291 -0.04334064
-0.11711571 -0.23923488 0.75651109
-0.22297001 1.19753599 -0.41692036
-0.45223024 -0.21864399 0.77478075
-0.49988261 0.35940149 -0.69770324
-1.57320750 2.10554814 0.25477773
0.27589044 0.39355567 1.06265056
-1.23930323 1.07154965 -0.36244500
-0.23251240 -0.29205063 0.84870368
0.43774423 1.39951885 0.64257675
-1.38454676 1.23251855 -0.21269372
-1.78193080 1.94262564 0.57082617
-0.05862562 -0.22588286 0.05749826
-0.04684203 -0.22614068 0.05910867
-0.47638473 2.15823889 -0.06114865
-0.41579652 2.19193506 -0.08791862
-1.67777562 2.00645185 0.64218634
1.15773606 0.03980612 0.24812280
1.11466360 -0.02046410 0.28623617
-1.79561067 1.68268800 0.60500431
-1.38294148 0.46575305 0.73683238
0.41585854 0.01283254 -0.48383078
-1.60904694 0.94246280 -0.15964216
-1.09303260 1.96055210 -0.03759275
-0.58688170 -0.30346149 0.33652240
-0.64844030 -0.32400018 0.34842166
-1.48681569 1.21377778 -0.16174498
0.47159889 0.40907437 0.94141507
-0.97612357 -0.02596254 -0.18189526
-1.50565302 1.38422430 1.05778491
-0.98031878 -0.21821563 -0.23594868
-0.96125036 -0.28400090 -0.26094916
0.98565412 0.35618883 0.53057659
-0.02215693 1.58143091 -0.03248866
0.63707107 0.64247656 0.85189945
-0.84303939 -0.30071500 0.36763811
-0.74871343 -0.29415801 0.39824733
0.49509722 1.37370050 -0.12393403
0.92707336 0.56914562 0.16757146
-0.14395949 0.38162097 1.12292802
0.49749520 -0.01397681 -0.41043824
-0.25028753 1.41570497 0.71365613
-0.94247371 0.04286540 -0.19147325
0.06939176 -0.06706274 0.98234099
-1.35343301 1.98668289 -0.72383475
-1.69200230 0.60037369 0.08473430
-0.84134167 0.54691929 0.86109483
-1.26955771 2.43924594 -1.22862566
-0.74707514 -0.32237577 0.07782004
-0.75200957 -0.31846827 0.06046395
-0.63936353 0.95447356 -0.46146733
0.83470035 0.64080924 0.60574442
-0.05284873 0.81895614 1.12601149
-0.20461240 2.54575253 -0.50904673
-0.82374418 0.49064422 0.85315520
-0.40666327 2.72080088 -0.38340542
-0.51643425 2.65618086 -0.25940508
0.45156860 1.14460301 0.78870624
1.04245496 0.42805806 0.44702673
-0.37124974 1.54895043 0.37587759
-1.30374253 0.31280005 0.60195851
-1.34869754 0.70933259 -0.36197543
-1.33301687 0.71634901 -0.36749327
-0.78583950 1.54619110 0.33115882
-1.31053984 0.39137328 -0.21560812
-1.35818958 2.12691951 0.42347977
-0.17139639 0.34551650 1.11166286
-0.25069407 0.22039971 1.08675897
-1.24653018 -0.21175559 0.33992195
-0.06773976 -0.29635054 0.81222069
-0.12557247 -0.26302230 0.78955102
-0.34232607 1.33168054 0.74134582
0.66240805 0.46646628 0.80517787
1.04156828 -0.06620626 0.12200272
0.03052533 0.63083869 -0.70500535
-1.04226983 2.06241941 0.25154510
-1.20096457 1.20775580 -0.32159615
-1.40209734 0.27898529 0.04314295
0.79300761 0.35793704 0.66108632
-1.04396200 2.18998384 0.16171825
0.35059455 1.33769357 0.72085708
0.97245139 -0.12991168 0.14427471
-1.36077309 1.70950902 -0.16729888
-1.45070732 2.15405059 -0.06305026
0.92907041 0.31680650 0.55254716
0.73354441 0.23917221 -0.23873945
-0.60153270 1.38752639 0.58156222
-0.44724530 1.47254610 0.49060690
-1.22554219 -0.06719571 0.01950491
-1.34263921 0.38188443 0.67673147
-1.28082824 0.34832707 0.67424417
-1.50615966 0.34069082 0.29060188
-1.75397277 1.25619924 0.47820503
-0.01825548 -0.21226531 0.71433425
0.04236855 -0.21096779 0.68549937
-1.53535259 1.32984340 -0.12091228
0.22324620 -0.24870032 0.89447284
-1.14579380 0.13749622 0.10395987
-1.19031143 1.63037956 -0.14243862
-0.86140692 2.11282730 0.13222809
0.92478788 0.51955867 0.35778296
0.59379673 1.37877357 0.04676617
0.79700369 0.50559324 -0.18825768
-0.36029640 0.37074620 -0.76233089
-0.37729630 0.40465426 -0.76497066
0.69231594 0.41006491 -0.32034931
-1.10326457 2.10768962 -0.03709428
0.20002544 -0.31572449 -0.32114708
-1.51692271 2.41497803 -0.65510702
-0.48500657 0.89437205 -0.56279147
-1.36371410 1.10801911 0.77350730
0.80170566 0.42921978 0.64918572
-0.71969372 -0.04389359 -0.37533399
-0.90175688 0.34764904 0.80412364
-0.86993444 0.69810992 -0.42871988
-0.85736817 0.65915054 -0.41735491
0.56066108 1.26184881 0.67029685
-0.55818146 2.26077032 -0.09686033
-0.54330224 2.23517680 -0.06117716
0.19605519 -0.30923691 0.26457846
0.43812659 0.55777550 1.00378180
-0.38871828 1.26185226 -0.37244403
0.72923040 0.10969157 -0.14429697
-0.40440464 0.20538728 -0.69064260
-1.77688813 0.98354107 0.17905827
-0.43521988 0.37102529 0.99310136
-0.74624789 -0.23490597 -0.18867196
0.55847192 -0.11121900 -0.12622531
-0.47461137 -0.23298004 0.02187773
-1.79188800 0.82047784 0.36735076
-0.44771650 2.17298293 -0.21642707
-0.31879303 0.12595451 1.02169216
-1.39171159 2.28120160 -0.30769533
-1.68857646 0.64660835 0.48875758
-0.76433557 -0.31121710 0.67517537
-1.83205187 1.84345019 0.32615986
0.66867489 1.32273698 0.12053500
-1.04656696 0.70806849 0.90885216
0.87930143 0.26426268 -0.03971440
-0.75707680 2.34767270 -0.26235560
0.71047133 -0.27265933 0.24855244
-1.06459737 -0.11217621 0.38445708
-0.75493985 0.93726426 -0.45053202
-0.53385693 -0.32179087 -0.54362798
-0.99728137 1.69843316 0.02285705
-0.13625687 -0.23952678 -0.30718780
-0.61546248 0.80018526 -0.50628215
0.53432703 0.25115871 0.88340461
0.60269248 0.28032187 0.83308017
0.15604174 -0.27461386 0.11678123
0.18508941 -0.29000947 0.16488278
0.11051026 -0.30974257 0.10736687
-0.93735808 -0.29107344 0.15916148
-1.42945611 2.39398170 -0.53669739
-1.24875212 2.20576930 -0.81779212
0.51182669 1.47217262 0.32003224
0.54352498 0.33276814 -0.44187334
-1.35195196 2.35754848 -0.53504592
-1.44658995 2.01439404 -0.81815004
-0.86797309 2.41127539 -0.02103496
-1.86025107 1.43224216 0.69579089
-0.37279031 1.51458836 -0.01752974
0.03864992 1.63271224 0.21662505
-0.64650929 -0.07827758 -0.53004748
-0.67189515 -0.06795195 -0.50331765
0.60821176 -0.08507282 0.64656997
-0.63038927 -0.29944828 0.18102257
0.51472169 1.42734706 0.51685959
-0.41381285 -0.32940200 -0.49861813
-0.95349348 -0.29029030 0.23352835
0.38432470 -0.28401864 -0.13762578
-0.97405839 1.36047626 0.62659812
0.06383663 -0.28096583 0.91981000
-1.78810763 1.80291653 0.69477856
-0.21056479 0.88716978 -0.68255657
-0.54189163 -0.23277669 0.61262065
-1.55234945 0.79484975 -0.24015117
-1.47807229 0.83662838 -0.29689893
-0.90255076 0.76297176 0.87648600
0.13045217 -0.13059063 -0.49149004
-1.11049342 2.07983065 0.46348432
-1.18247807 0.27153364 0.60324305
-0.88780642 -0.29715276 -0.48527676
-0.12445634 1.41958869 0.73062795
-0.58154398 0.22084484 -0.49037603
-0.92455876 -0.31033704 0.37737525
-1.18615615 -0.32266751 0.37188303
0.37994522 -0.24613780 0.83434510
-0.61782277 0.04437338 -0.29317534
0.81260675 0.03200614 -0.13622268
0.02413928 -0.30438399 0.10778490
-1.74706638 1.23087513 0.73254955
-0.81653786 -0.32821336 -0.44647965
0.90441519 0.49791905 0.03524445
0.91926658 0.48977023 0.07778324
0.74631763 0.17086175 0.66119719
-0.04934336 0.49951869 1.17524576
-0.16409980 -0.22072180 -0.15061711
0.58963621 1.10164082 -0.28529292
0.41881272 -0.05668500 -0.41706839
-0.83769774 -0.29686522 0.31579548
-0.74071026 -0.28751472 0.24473990
-1.26383507 0.17983060 0.23718041
0.70820469 1.25307214 0.05055051
-0.33900711 -0.32694933 -0.49361527
-0.31306770 -0.32487547 -0.45634502
-0.20155355 -0.32304475 -0.44451198
-1.38231015 2.17414808 -1.04304779
0.47928706 -0.24399489 0.62061602
-0.43684915 1.40454292 -0.21397504
0.38563752 0.47067451 1.02603805
-1.52739811 0.55814093 -0.18092221
-1.50892663 2.55765700 -0.93579674
-0.72296166 -0.23427115 -0.12294155
-0.50292498 0.63979805 1.06423092
-1.27228391 2.41709709 -1.22524703
-1.11622465 0.03297436 -0.05539747
-0.32748047 2.68074107 -0.39869642
0.33292055 -0.29038295 0.23503220
-0.62249976 -0.24069403 0.03931849
-1.22734547 -0.25033972 0.39911130
-1.21471381 -0.22620663 0.38888317
-1.63076735 1.94511735 0.77673030
-1.03660691 1.75769067 0.49248645
0.16156255 -0.27614090 0.71368563
-1.35562694 2.24356151 -1.10947835
-1.59504807 0.75076282 -0.18311307
-1.29186285 1.78991675 0.80087203
0.01774049 0.25700274 -0.68112355
-0.85128200 -0.30229732 0.36254072
-0.21431471 1.59635425 0.35521951
-0.16744721 1.60352004 0.36750922
-1.26165581 -0.06628205 0.10878862
-1.39912140 -0.16170378 0.14918461
0.15346658 0.45283970 -0.67243397
0.18533161 0.44899160 -0.65612119
0.04165597 1.43339229 -0.24125129
-1.45840204 0.42170316 0.62775594
-1.76599360 2.02880073 0.24360065
-1.53309751 2.10388422 0.17231160
-1.34608769 2.35873723 -0.54777879
-1.61655331 2.05087924 0.08023908
-1.69276536 0.69317114 0.53071713
0.54022312 -0.12222657 0.71610254
-0.20753448 2.59745240 -0.54786366
-1.46835661 2.01321316 -0.72216237
-0.36830205 -0.04473690 -0.58444422
-0.33897543 -0.06062196 -0.58166915
-0.27890816 -0.22740224 0.57944852
-0.28873748 -0.22903855 0.56175244
-0.49864200 -0.23394607 0.03957075
-0.83300239 -0.30178896 0.39180574
-0.08592852 -0.10493759 0.94254518
-1.36345410 -0.23426846 -0.09590506
-0.72909373 2.06841326 0.04644615
0.83467889 -0.19429238 0.07048401
0.62293530 1.27978015 -0.10646079
0.27655956 0.26685449 1.03573823
-0.88934904 -0.32135227 0.51742101
-0.89863217 -0.31760833 0.48616189
-1.46603870 2.30222893 -0.81797665
0.80700541 1.09233320 0.38929859
-1.51798856 2.04431272 -0.24057142
-1.17698658 1.27870071 -0.29624715
-1.03248668 -0.30474567 -0.25255108
-1.14475119 -0.28649876 -0.21286567
-0.16202740 -0.22963682 0.14670829
-0.32017213 -0.23356809 0.14232935
-1.30044353 -0.30494526 0.55491149
-1.04651082 -0.32820404 0.46136653
-0.97082818 -0.31707889 0.41062006
0.13279225 0.32389292 1.10917628
-0.57918906 0.01239504 0.84315979
-0.52974403 0.03173190 0.82131839
0.51783377 0.08306520 -0.42406791
0.49929205 -0.14684717 -0.13977996
-1.41183412 2.18836689 -0.91169095
0.02633568 0.97662967 -0.49649355
-1.30089629 1.59734201 0.88987714
0.77208555 0.56545645 -0.22747216
-0.74064255 2.51192164 -0.16510606
0.39069605 -0.27791062 0.28296223
0.45125911 -0.27693349 0.29179031
-1.03772283 -0.32650518 0.17086224
-1.04188371 -0.32867223 0.15895574
-0.65741628 -0.30613297 0.76859897
-1.79751647 1.97949004 0.49849954
0.38377920 1.37169468 0.69274342
-0.21293493 0.00142366 -0.62735856
0.24456652 1.56960428 -0.00813236
-0.35428590 -0.23167394 0.00649857
0.48011801 -0.22160468 -0.08274054
-0.12940133 1.60876906 0.14597288
-1.29853582 2.07846618 -0.81711578
-0.44415423 1.50762105 0.41440856
-0.78232384 -0.32889634 -0.51346684
-1.50241065 2.11815453 0.44449833
0.63786644 -0.22600177 0.49897766
-0.44872057 1.11182463 -0.45175803
0.66866368 1.27674675 0.51463962
-1.11888325 1.52885997 -0.12934712
-0.25973988 2.68157625 -0.54320836
0.90187156 0.75542969 0.01736059
-1.56068766 0.55265462 -0.14651094
-1.70045125 1.14511538 0.44642371
-1.70380151 1.12590301 0.44756600
0.92178774 0.65616816 0.12588659
-0.11279834 -0.05402301 -0.59934515
-1.01255798 1.86277235 0.29836622
-1.18768477 -0.28026074 -0.19677933
-1.58499086 2.10304022 0.44798782
-0.42696097 0.09403189 0.91208017
0.45336086 0.19903740 0.93410569
0.41874164 0.15556325 0.95678765
-0.79662389 1.54531908 -0.03811932
0.22152725 1.61275864 0.17996289
-0.57297778 1.42747784 0.50578725
0.89862972 0.65268779 0.46095708
1.01518941 -0.09352103 0.13416338
0.19987749 1.03958631 -0.42778441
0.17912556 1.23130620 -0.38716221
0.39891800 0.94842595 0.93826967
0.36983773 0.98189533 0.93566298
0.03752728 -0.24980813 0.00162993
0.05125444 -0.24794419 -0.01878784
-0.43562114 -0.30451819 0.95821697
-1.37670231 0.57282275 0.80328327
-0.13847578 0.64424348 1.14757705
-0.87933481 -0.28219375 0.17284063
-0.53506702 1.23828053 -0.35172689
0.52356231 -0.24421960 0.54148197
-1.16008353 2.11176920 0.28949624
-1.42463434 2.62306690 -1.09872210
-0.04831248 0.20734292 1.10410249
0.82208943 0.89490974 -0.11848698
0.36557940 -0.25687692 -0.31791306
-1.03569961 -0.32510987 0.28370711
-1.01512897 -0.32261890 0.28958175
-0.38065889 0.91022265 -0.61402279
0.18108538 0.77627647 -0.63832980
-1.71445215 1.46442640 -0.05593598
-1.73836172 1.40206873 -0.02072161
-0.50964880 0.52833986 -0.74221098
-0.30886140 1.51475191 -0.05849177
-0.28436640 1.52553916 -0.05418330
-0.33380517 1.49327147 -0.08794078
1.08182585 0.15988255 0.55978042
-0.25899836 0.81068981 1.13324976
0.28227484 0.08551618 -0.57013118
-1.22174466 0.96529782 0.85775042
-1.48180974 1.90847087 -0.21844283
-0.30595064 0.61878115 -0.78607941
-1.26637352 -0.25703102 -0.16022690
-1.30295444 -0.23249248 -0.14020072
0.52041698 1.45298171 0.11006492
0.53668731 1.45044112 0.16095312
0.21060871 -0.31555128 -0.03396660
0.28393576 -0.28662804 0.11723720
-0.81168753 -0.30663258 -0.18319987
-0.90755975 -0.31944695 -0.40527096
0.46157095 0.31169716 0.91738516
-0.34926128 -0.23382832 0.45169771
-1.45693767 2.25591254 -0.25543261
0.20278560 0.48399621 1.10732353
-1.58463895 0.80278510 0.71330750
0.27913612 1.16834843 0.81677216
-1.42830586 0.27791655 0.39008898
-0.39843139 2.21844816 -0.09939927
-1.20592606 0.23989335 -0.07441473
-1.50571525 0.50140721 0.66163671
-1.50532293 0.54243869 0.69094372
0.89803708 0.75824124 0.43024433
-1.69058776 1.17229927 0.47639576
-1.71719313 1.22434759 0.47985882
-1.29400647 0.29256743 -0.10775449
-1.32224965 0.33191293 -0.12598953
-0.01557779 -0.30590859 -0.47205764
-0.88743132 1.51070285 -0.16222899
-1.62387276 0.45209837 0.19570705
-0.57228863 2.09541917 -0.09488825
-0.67021257 2.05427217 -0.02322253
-0.54627782 2.37106037 -0.35919544
-1.24537885 -0.09218791 0.64039463
-1.19682920 -0.06089740 0.66288912
-0.35980493 -0.22594215 -0.30797064
0.31813461 -0.31296846 -0.04593027
0.32438216 1.49070597 -0.09488262
1.06815994 0.45071226 0.15643324
-1.05248737 1.84726369 0.43529749
-0.98635745 -0.30887312 0.72810626
-1.56030405 1.87530863 -0.08234438
-1.48590088 1.81477237 -0.13432133
-0.97423661 -0.31817290 0.48914856
-0.99867719 -0.32026809 0.54628414
0.53500748 0.84502518 0.90631354
-0.56202805 -0.24564074 0.47552547
-0.57198679 -0.02434516 0.91658914
0.40577757 1.15124118 -0.32543427
-0.20854756 -0.22249235 0.63688976
-1.16027093 -0.04467895 0.66508168
-0.13352436 -0.31835568 -0.38165200
-1.24811542 1.96181858 -0.17383122
-1.25143480 1.97220540 -0.27406293
-1.63467288 0.72876912 -0.12867698
-1.72654200 1.89312446 0.74084759
-1.77092350 1.23350680 0.20429792
-1.25578058 1.33747435 0.84447640
0.17983887 -0.30554375 0.30587310
0.14901926 -0.30728164 0.34084529
0.82171535 0.56181425 -0.15216222
0.82793981 0.53215438 -0.14398152
-0.09307208 -0.24751098 0.76053798
0.38127539 -0.30635998 -0.01127341
0.64888638 1.33985376 0.38954404
-1.00200593 2.30880189 -0.04010233
0.19289407 -0.29156837 0.07929543
0.22653770 -0.28746977 0.14601031
0.20948824 -0.29294842 0.08178174
-0.46396413 1.43123817 0.57576281
1.07708621 -0.04567811 0.37766078
-1.02349591 0.16008684 -0.18707521
-0.56381899 0.65420949 0.94390762
-1.40382528 1.90426052 -0.40045607
-1.55189013 2.13945651 -0.29758722
0.28734022 0.83667672 -0.55939990
-1.87563252 1.36896503 0.32171395
-1.86862719 1.45905697 0.24056810
0.58976287 -0.01361457 -0.24986666
-0.62329537 -0.28879201 0.16399275
-1.13339019 0.14494781 0.25892240
0.07215673 1.62193239 0.39809579
0.09647422 1.59587872 0.50018978
-0.87054467 2.26808906 -0.19711646
-0.67963368 0.96747142 0.86988550
-1.49563360 2.58303332 -1.06937218
-0.43660188 1.07129431 0.86714882
-0.17259827 -0.11392882 -0.54774415
-0.35346809 0.11526056 -0.66860735
-0.30008134 0.14047478 -0.69354200
0.47688186 -0.06887507 -0.35640204
0.10184352 1.56229115 0.56426144
-1.14845419 -0.03910568 0.74475694
0.61808079 -0.02748384 0.68639147
-1.16147768 2.10745239 0.38547736
0.55260289 1.33978248 0.60135227
0.48182830 1.40100121 0.60148680
-0.83783299 1.58035660 0.18843788
-1.62651539 0.45564935 0.24985965
-0.54238796 0.26724127 -0.60847813
-1.28658283 1.47219706 0.95863003
0.66765845 1.06157637 -0.25052842
0.49506992 0.04082979 0.80762744
-1.03902924 1.68611038 0.60099107
-0.47840881 -0.28297183 -0.38692194
0.33427060 -0.28970835 0.23818755
-1.50907767 1.53784263 -0.16120067
-0.48262978 0.27185348 0.85105944
-1.24452221 2.26937270 -0.74564803
-1.18801093 -0.33111897 -0.09219898
-1.19788849 -0.33136269 -0.09868025
-0.92686778 1.66116786 0.31510016
-1.08105636 -0.09301712 0.31803441
-1.30008042 -0.18244056 0.64233929
-1.31267595 -0.20784472 0.63822269
-1.71709669 1.22234905 0.47490600
-1.74484622 1.24709082 0.47120258
-0.03820152 -0.25572369 0.32442579
-0.48577929 0.82974565 0.99225938
-1.27218378 -0.33252853 -0.05197345
-0.82170928 -0.32161802 0.53649431
0.25814024 1.52043867 0.59444958
0.29091597 1.50080907 0.59892136
0.33688909 1.42072082 0.65854943
-0.47689286 0.80091202 -0.71169537
-0.23285307 2.50504470 -0.44206563
-1.27115333 1.31840563 -0.22057262
-0.19363815 1.17097807 -0.44345063
-0.45945644 1.23537588 0.77806592
-0.61015797 2.58289313 -0.24834703
-1.62812686 0.54306161 -0.03118407
-1.23183012 2.12132692 -0.45320752
-1.58788776 0.48503688 0.49924004
0.29305330 -0.30521816 0.36817625
-1.17611563 2.06160474 0.63399029
-1.15058637 2.03445768 0.64300573
-0.79182374 0.94854844 0.84192204
-0.77155375 1.28716540 0.68168837
-0.54897118 0.13387479 -0.52096915
-0.53526491 0.09077483 -0.52887923
-1.00208652 -0.32600063 0.36111510
-0.12162250 0.55501467 -0.75308114
-0.10554553 0.57209402 -0.75157720
-1.42089891 2.13318825 -0.00599463
0.98123324 0.09555376 0.61061651
0.96856523 0.06750364 0.61181813
0.30687955 -0.17239945 0.88840717
-0.30129015 2.25771070 -0.31930745
-1.37632084 0.27221060 0.01249182
-1.30313957 0.24447139 -0.03497863
-0.50221562 0.53228128 0.99907529
-1.24488866 2.09033227 -0.63237000
-1.86527193 1.40532827 0.76705998
-1.13727260 2.18695593 0.09671412
0.05338821 -0.25453869 0.92532510
-0.57131851 -0.27170792 0.23922725
-0.56061947 -0.26895103 0.28103936
-0.96973473 -0.32034856 0.50895524
-1.37328875 0.75432944 0.86279815
-1.11217809 0.85435921 -0.43864727
0.88470387 0.78399974 0.46543753
0.85842252 0.83135939 0.51619524
0.87659174 0.90317255 0.41308889
0.85140324 1.03559256 0.15716355
-0.72767514 2.01724720 -0.03424466
-1.51870418 0.42912790 -0.06562439
-1.23728561 1.91585767 -0.10533126
-0.37436560 -0.28935677 0.88136184
0.24954106 1.24971020 -0.35956874
-0.25105703 2.35792732 -0.45265046
-0.93863201 1.98239064 -0.07734220
-1.42415380 2.34697747 -0.96049297
-1.72622621 0.98351318 0.52407438
1.04831636 -0.03372205 0.45321393
1.10683250 0.00816427 0.42536396
0.52263945 0.75535756 -0.45934743
-1.69638872 0.81852657 0.57678241
-1.45338297 1.90531945 -0.30072835
-1.49287534 0.99784082 0.75578427
-0.49010530 -0.27031416 -0.58086032
-0.47246435 -0.24867441 -0.57676286
-0.81764144 -0.32056528 -0.03147402
-0.04676730 1.61042917 0.06539276
-1.61467469 2.05206704 0.08069487
-1.82584739 1.29907262 0.44751179
-0.89716619 2.35453844 0.05297789
-1.73575115 1.87192893 0.17540666
-1.46283543 2.04027677 -0.73266941
-1.69164753 2.07093883 0.25710914
-1.05055046 0.12603150 0.35909867
-1.14021921 0.16847461 0.38781303
-1.00939298 1.74421453 0.03774443
-0.59447289 2.59955144 -0.24145404
-1.12294137 2.10539269 0.26967487
-0.93504071 2.31798315 -0.12908773
-1.06029892 2.21293259 -0.04659896
-0.61822456 0.81077492 0.88229942
-0.13437706 1.36641443 -0.29733866
0.16493395 -0.31540769 0.25014362
0.14052889 -0.31953046 0.24832650
-0.69795895 2.24738407 -0.03361591
-0.63363445 -0.26550251 0.71909183
-0.66252792 -0.27742314 0.67035550
-0.65196663 0.22380571 -0.30387941
-1.48428154 2.36201572 -0.86101890
0.15108821 0.28135148 -0.64064813
0.05221722 -0.30487773 0.78813624
-0.74806899 0.05398571 0.77942860
-0.82293177 0.03980744 0.78790152
-1.39754605 2.12566090 0.44258097
-1.69311798 0.66973877 -0.00902308
0.05632174 -0.02500885 -0.59197706
0.01796598 1.14348030 0.85887140
-1.05952895 2.13334537 0.20970891
-0.11723487 0.99353075 -0.49774486
0.22367148 -0.30856496 0.45855176
0.67557067 0.49343425 -0.33149046
-0.21273986 0.71359479 1.14578891
0.76810539 0.74780172 -0.28220534
0.84911579 0.77440363 -0.14378200
-0.99679404 1.44958878 -0.21891096
-1.52196014 2.11209798 -0.39151913
0.38031000 -0.00122701 0.87260497
0.12250070 -0.30475199 -0.43449965
-0.44449019 0.96372503 -0.48583308
-0.46698368 -0.21810384 0.75638288
-0.45565599 -0.22389942 0.69412345
-1.46441722 1.44154704 -0.16316238
0.41223198 1.06904829 -0.38765937
-1.15280664 0.25678620 0.58798409
-1.62544942 0.74569410 0.66414100
-0.69735342 -0.31343296 0.36410472
0.77703232 0.23394656 0.64767444
-0.87344980 -0.14780714 -0.35857195
-1.05597568 -0.05053378 -0.14294964
-1.07157791 0.03522810 -0.11653431
-0.22561252 0.17148420 -0.69102669
0.44291633 -0.18624605 -0.17674090
-1.15068829 -0.32696614 0.35589740
0.84436387 -0.19929962 0.34026662
-0.77320081 2.04057932 -0.13235681
0.12433019 -0.22002947 0.67848516
-0.00298720 -0.26347739 0.08634286
-0.90975815 1.60322356 0.41330960
0.48508099 0.59550792 0.98043668
-0.76988834 -0.24348335 -0.13528180
0.46932843 0.37261501 -0.51774961
-0.83964086 2.35266089 0.06575175
-0.62495035 -0.04145303 -0.47711438
0.38069105 -0.23466411 -0.31105158
0.98463506 0.44009891 0.13570808
0.85333490 0.92211324 -0.02334294
0.19656371 1.30608034 -0.33922175
0.12410426 1.35865641 -0.32532316
-0.56132364 -0.23204602 -0.17948553
-1.79501605 1.27578998 0.65388691
-0.60008901 -0.23664500 0.68948847
-1.75644457 1.27779460 0.09764821
-1.20325565 1.64117873 0.76691151
-0.67563599 1.52301562 0.02766392
-0.49883881 0.39578789 -0.71761394
-1.41431475 2.03581452 -0.89877623
-0.58853537 0.12324792 -0.43537241
-0.05159776 -0.21806078 0.71835494
-0.34191242 2.52041435 -0.35950845
-0.50364739 0.54838586 -0.74855167
-1.16044426 -0.05373972 -0.04639492
0.59004188 0.30224487 -0.39453641
0.60631961 0.37211761 -0.39207357
0.25190189 1.40581334 -0.25898370
-0.79446399 -0.29019248 0.30469769
-0.49060512 2.58795166 -0.38108608
-0.42852920 -0.23297288 0.79807723
-0.39738917 -0.30195448 0.89214540
-0.36415598 -0.23190986 0.81105655
1.06213307 0.34475711 0.01465498
1.05163503 0.36640331 0.02890022
0.63269579 1.26043224 -0.12100741
-0.30233514 1.54959130 0.02590399
0.92049980 0.70817649 0.15889616
0.44925463 1.49210620 0.05403216
0.49469176 1.46835661 0.09132158
-0.64227736 2.49485230 -0.05929429
-1.06664097 1.02154636 -0.42367932
0.32629105 0.03332902 0.93016618
-0.36546731 1.56199431 0.23463854
-0.81473458 1.48021007 0.47926453
-0.81093031 1.51080155 0.42585379
-1.38135600 1.84866440 -0.21605441
-1.54323125 2.28450727 -0.68334854
-1.26052749 2.07582664 -0.21789458
0.41250262 1.19987643 0.77274215
-0.88041472 -0.31664643 0.46481544
-0.86886835 -0.32257345 0.54664773
-0.95707715 1.92650247 0.16595192
-0.62867671 0.39075202 -0.51290953
-0.60047644 1.26016176 0.70618242
-0.92976350 -0.28261641 -0.36409789
-1.42718792 0.42827031 -0.15581632
0.42369065 -0.06339274 -0.40943453
-0.51922429 0.18584470 -0.60211730
-1.41060615 -0.26699087 -0.02350674
-0.63474476 2.25658536 -0.29559264
-1.43727446 1.17954028 0.75961041
-1.11419654 2.08626604 0.42311719
-1.07584381 2.05307817 0.39239398
-0.29057103 1.40965998 0.70439935
-1.61516523 1.37356710 -0.08484484
-1.44905388 0.31811801 0.42371964
-1.27792621 0.50158107 -0.34089524
0.24372244 -0.30699727 0.42732033
0.27332196 -0.29716522 0.28388691
0.87237722 0.35254523 0.52397537
-0.80230981 0.00617185 -0.22342883
0.65206355 -0.27356249 0.33911130
0.49379727 1.36521649 -0.13677202
-1.83389127 1.59230471 0.60880983
-1.73639011 0.67288506 0.26257208
0.31636477 -0.22963683 -0.41651484
-0.55190760 1.35663438 -0.26016122
0.16168065 1.62866592 0.23457198
0.88815773 -0.18396431 0.16569610
-0.96403414 2.34981179 -0.03097429
-0.93044972 2.37499714 -0.02222818
-0.92735827 2.36546755 0.01395649
-1.16270053 1.20817816 -0.33763978
-0.35450009 0.59528571 1.14246631
0.51691914 -0.25525698 -0.02436399
-1.54246080 2.25612497 -0.39669839
-1.52678239 2.24491382 -0.32682663
-0.02230176 -0.30894712 -0.34178576
-0.74854511 1.13278913 0.76553130
0.03711662 0.89401978 1.08933759
0.62809938 0.11145832 0.77106726
0.85103732 1.01761746 0.30087876
-0.37214589 1.13251650 0.84697413
-0.33525056 1.22644353 0.81269026
0.64908230 1.32902086 0.03617267
-0.17141548 0.50945169 -0.75485516
-0.67982548 2.43923545 -0.29459462
-0.97019100 -0.32376474 0.54131013
-1.27907050 -0.30584896 0.76265687
-0.67045146 2.18820930 0.04953999
-0.66113698 1.11930704 -0.41226998
-1.49806464 1.38631094 -0.15277514
-0.61011893 0.53074133 -0.66884470
-0.39917994 -0.19576512 -0.56967205
-1.26725984 0.18209498 0.26862031
0.45996937 -0.01928545 -0.43134448
-1.61730969 2.08271885 0.51198339
-1.44997203 2.48002315 -1.03314519
-1.53444421 2.47948265 -0.96641672
0.40199873 -0.22938648 -0.22627094
-1.54979205 1.86150217 0.91285515
-1.21973562 1.83802104 0.72492611
-0.38721347 2.73051357 -0.39948878
-1.38419390 2.11728001 0.19779165
-1.33159578 2.11318660 0.19162531
0.71427447 -0.24890439 0.08375289
0.31796393 -0.30859682 0.42087480
0.40956441 0.12496419 0.95368081
0.21787199 0.51786906 -0.63564676
-0.55934298 -0.24697879 0.42445740
-1.19017243 2.05575705 0.65356362
-0.09286543 0.08369094 -0.64904225
-1.15967500 0.93079233 0.87326682
-1.82407582 1.58917952 0.71572757
-0.12844799 0.42308000 1.15198052
-1.49994302 0.64766324 -0.27113488
0.79884696 1.06663382 -0.02740764
-0.27082226 0.19116336 1.06078005
0.32487440 -0.27080601 0.85875899
1.09924018 0.01276063 0.06724492
-0.69733167 0.67579573 0.85769290
-0.54000652 0.53575546 0.92302358
-1.24722135 2.03773093 -0.45935309
-1.24134266 -0.31543618 0.54299426
-1.12521100 0.22871073 -0.09938318
-0.90030986 -0.28751138 0.19650869
0.42508709 0.86106533 -0.46433681
0.34797162 0.80472720 -0.53407180
0.32904965 0.82706761 1.00867581
0.30474299 0.79250348 1.03426278
-1.84287035 1.35749567 0.51857150
-0.03097550 0.69493902 -0.73429197
-0.68846005 1.43438351 0.54465008
-1.33053446 0.21494529 0.15090550
-1.25493538 -0.25414124 0.46889672
-1.66257763 1.34728873 -0.04779953
-0.09617271 -0.29465267 -0.48723119
0.33179045 -0.28981417 0.20020892
-0.75121731 0.41382554 -0.33457932
-1.25850904 2.10680842 -0.72539902
-0.97627789 -0.31876665 0.39125815
-1.05421531 -0.33162639 0.41488832
-0.48718721 1.13820863 0.82645476
-0.56628495 1.08027923 0.83501595
-1.76203191 1.06808162 0.36173144
-0.48360026 -0.00060139 0.92989033
-0.48391655 -0.01869612 0.97049546
-0.52483070 0.78714913 0.97524822
-0.69743973 -0.12922296 -0.56600523
-1.50734890 2.00971484 -0.45722884
-1.46505690 1.96261108 -0.46838093
-0.68254757 2.14932728 0.06032268
-0.22517373 2.42904162 -0.52920955
-1.16281402 0.79099077 -0.42312077
-0.84242672 1.29750729 0.67975414
0.82729983 1.08316505 0.08778713
0.41587174 1.16787148 -0.31624848
-0.01121468 -0.21818492 -0.07756058
0.03165752 -0.22074908 -0.07163715
-1.38233423 1.87832296 -0.30230394
-1.29473722 1.88638902 -0.26557964
-0.05433001 0.56752193 1.16721582
-1.23119938 0.34682918 -0.21037500
0.14210440 1.47999990 -0.18857162
0.07943731 -0.23248558 0.51836902
-1.04327452 -0.05957482 0.31196290
0.14269315 1.30052817 0.79206359
-0.85538173 -0.32556739 -0.02514301
-0.57825166 1.06712568 -0.45962900
-0.59868181 0.98338860 -0.46294266
-0.54808599 1.17553258 0.78118533
-0.13104245 1.27716136 -0.36785915
-1.16569889 -0.32937467 0.10245191
-1.81609797 1.71127129 0.38760689
-1.80062556 1.72384608 0.45930701
0.29588243 -0.01724606 -0.52391183
0.14357024 -0.25232437 0.69258022
0.34058022 -0.28641650 0.28864449
0.96667570 -0.12520982 0.39361909
0.82393122 -0.05146411 -0.10279616
0.76897061 -0.04786682 -0.11796279
0.10507308 0.97939003 0.96948993
0.12751442 0.94197702 1.01582646
-0.57186413 -0.22974436 1.07416916
-1.07809496 0.12589650 0.25666726
-0.94045460 -0.32189929 0.53115690
0.91158640 -0.13081937 0.03558863
0.17574307 0.89589053 1.03397787
-1.63421702 1.90077829 0.00415939
-0.85952401 -0.32003069 0.49659696
-1.11464775 1.30426943 -0.29982769
-0.91756850 -0.17354734 -0.28458920
-1.26387060 2.52821064 -1.22586989
-1.25842881 2.41195440 -0.99986345
-1.39582789 1.41864502 1.06449485
-1.50743008 2.26795816 -0.33122587
-1.01739919 0.32987112 0.73098546
0.93388653 0.41527677 0.42841136
-1.28542805 1.82771099 0.78863502
0.60489154 -0.05836601 0.67945874
-0.38229874 2.19020700 -0.22159301
-0.87054533 -0.32547459 -0.16468211
-0.39264217 -0.03731429 0.98885095
-0.23436373 -0.26347545 0.82300264
-1.13540387 0.10718755 0.00407226
-1.13508618 0.15247495 -0.00795783
-1.13529038 0.87676352 -0.43174687
0.26371565 -0.29780602 0.30156457
-0.36249661 0.74480903 -0.76671684
-1.60397625 1.84497678 -0.05164671
0.73019564 0.79966551 0.75570279
-1.68178701 0.55047947 0.35821760
-0.14687011 1.01136029 0.93204558
-1.79337430 1.76823115 0.68952328
0.56956089 -0.22258668 -0.04656695
-0.55952913 2.53722048 -0.34395984
0.51108754 0.05259823 -0.43005383
-0.17102639 0.15887147 1.08824015
0.12180200 0.44210374 1.12600410
-1.25580394 0.30245760 0.61985421
-0.31143773 2.21694541 -0.24699253
-0.18883920 2.42304397 -0.43948981
-0.87019491 -0.29247993 0.24659608
-1.26989937 -0.13248450 0.59178585
0.76799995 0.30164713 0.69247597
0.67585218 -0.05088858 -0.12416366
-1.69551003 1.65061975 -0.02076114
0.01042829 1.00091302 0.96460766
-1.13925958 0.10739483 0.07212360
-1.73428547 1.17344999 0.27240732
-1.73094642 1.16449296 0.24087222
0.28834403 -0.30737489 -0.34833691
-0.92507195 -0.30993083 0.65440989
-0.23324384 1.46308482 0.66594690
0.25210428 -0.29283684 0.10901708
-0.43888500 2.23441148 -0.10028249
-0.45804000 2.27511382 -0.15363164
-1.81574690 1.28361177 0.76231271
-0.75160325 -0.23260908 -0.16818830
-0.83544159 -0.12844750 0.84346032
0.34730691 1.53463721 0.47084060
0.03674275 1.57806146 0.54073274
0.29060802 0.45915079 1.06786370
-1.05089498 1.28680789 -0.32288885
-0.89598781 2.37961745 -0.13334021
-0.85206580 2.39238477 -0.17414524
-0.32227769 0.96659237 -0.49859345
-0.30732715 0.97559732 -0.48908234
-0.17141467 0.94284886 1.05682397
0.56337941 0.55252391 -0.45187280
-0.64153910 0.01533795 -0.27441588
0.77335948 0.08830862 0.63201946
0.68799859 0.21398820 -0.28730822
0.67971480 0.24323529 -0.30949283
-1.16073167 -0.31630579 0.52775621
-0.53935319 0.03785970 -0.51032346
-1.46774805 2.44358277 -0.69166201
0.38977328 -0.28762478 0.19695275
0.41138387 1.01061153 -0.43089557
-1.72400475 2.06015015 0.27824315
-1.71190417 2.02885771 0.16545157
1.10322130 0.10732628 0.00939800
-0.81184328 -0.32924676 -0.49211469
1.04997730 0.38586411 0.49860856
1.04460835 -0.06530493 0.13109472
-0.27647370 1.16836226 0.85333133
-0.13762386 0.78394836 1.14109683
-1.68965352 1.57385647 1.00703490
-1.30720413 0.77465445 -0.37160951
-1.38417041 0.43201196 0.70649439
-1.22860348 1.98489344 0.73214900
-1.04989362 -0.09436158 0.38965371
0.20190032 1.11366880 -0.40510672
-1.62786555 1.25726604 -0.02770292
-1.17696607 0.41266337 -0.30766344
-1.51713514 2.01102495 -0.37651595
-0.82717288 2.21552610 0.06894968
0.76954436 0.17323363 0.63094562
1.19125760 0.27382678 0.41240823
-0.41240802 1.28980684 -0.34457028
-0.94484091 1.67764461 0.18521336
-0.95044237 2.18694997 -0.14747196
-1.59642339 0.41143608 0.28893447
0.99556810 0.46241683 0.21183060
0.86728340 0.57202077 0.53928274
0.31790864 1.40368640 0.68412870
0.30502534 0.57687777 -0.60049570
-0.65917361 -0.27628994 0.63120550
0.65097386 0.85883307 -0.34499791
-1.30096126 0.63110483 -0.37131560
-0.89059466 -0.18069115 -0.38127765
-0.88726997 -0.29711303 0.29118693
-1.65501595 2.08864045 0.40118220
0.94936383 0.25294611 -0.05927387
-1.09546781 -0.06571808 0.50619757
-1.07500601 -0.05340723 0.49531728
-0.02304571 -0.27284527 0.76730651
-0.03358048 -0.21200769 0.71095610
-1.20409048 0.16682281 0.30682892
-0.49778587 2.36994743 -0.21397573
0.28147870 1.23483074 0.78379571
-1.53947723 2.10439467 -0.19749661
1.09435952 0.17424136 0.54966640
-1.05396581 0.83049548 0.88638997
0.88611269 0.90959555 0.07150143
-1.46670341 1.19793117 -0.18190384
-0.46619371 -0.12870896 1.07169700
0.17959976 -0.30473784 0.37164000
0.23378372 -0.29839465 0.29686016
0.52853817 -0.30465055 0.12594672
-1.21190166 -0.12292127 0.27005211
0.90331793 -0.16659144 0.11914826
-1.42591465 0.87938750 -0.31483382
-0.31666288 -0.23991100 0.82068014
-0.31663772 -0.27939859 0.85518998
-0.15145484 -0.26010865 0.80138022
-0.26177594 0.10107686 -0.67557138
-0.81654567 0.68290955 0.85967487
-1.25078666 -0.06166870 0.09477164
-1.25846267 -0.06867950 0.06553119
0.06968639 1.39076829 0.74858290
-0.53908139 1.48350692 -0.01270814
0.48706642 -0.24792443 0.57890362
0.34609544 -0.28443095 -0.30384296
-1.29539561 -0.32398954 0.20054483
-1.43641508 2.58117199 -1.11993253
-1.25743103 1.44522011 -0.17617071
-1.39374352 0.97501481 0.82171667
-1.47263467 0.92742556 0.79891050
-1.65837097 1.45351326 0.99238878
-0.30143347 -0.22330220 -0.27974570
0.89959508 0.81264400 0.35292485
1.09782064 0.08379595 0.50964874
0.65007806 1.11076951 0.68081993
0.62195504 1.22159255 0.64025497
-0.40871400 0.28064165 -0.71783745
-1.27886868 2.13275862 -0.85640633
-1.27937007 2.13800383 -0.87223756
-1.06350124 1.96383274 0.46030155
-1.51835430 2.30388117 -0.42022735
-1.06305623 0.60191482 -0.41458708
-1.54921448 2.07176685 0.61119187
-0.16595881 0.26542297 -0.71311778
-0.15906186 0.23960209 -0.70780802
-1.59847808 2.06275892 0.08788541
1.01587355 0.09520943 -0.07832168
-0.95482695 1.58084404 0.54726821
0.47542727 0.75891685 0.96314776
-1.40308404 2.11562562 0.52070755
0.82372421 1.03297365 0.42494690
0.52074432 1.46507275 0.30633679
-1.01521897 1.77484834 0.04074611
-0.20313394 1.56643176 -0.00338383
-1.58252251 0.68406636 -0.19540603
-1.42493021 2.43694901 -1.02801597
-1.43437123 0.40179130 -0.12233072
0.67401612 0.25964543 0.79203886
-0.66449004 0.31927663 -0.35205612
-0.48161712 1.51560271 0.07025973
-0.91164523 1.19905651 -0.36414707
-0.31315738 0.47687858 -0.77839977
0.01467978 0.88390964 -0.64950919
-1.09079099 0.27751112 -0.16674049
0.25455490 -0.30516824 0.39273867
-1.29029882 1.62115145 0.85281050
-1.31288433 1.69737780 0.84738541
-1.33313072 1.68708754 0.88635689
-1.79250908 0.81699842 0.35230649
-1.14551759 0.14980842 0.28646794
-1.32885742 -0.09572921 0.11918212
-0.59137464 -0.29350322 0.80189896
0.54530919 -0.26714391 0.00128327
0.75074404 1.19479108 0.05438428
-1.45824456 0.39646885 0.58934706
-1.10727465 0.11680143 -0.06940879
-0.99124449 0.59955120 -0.40493631
0.20280129 -0.30065882 0.70948309
-1.13202190 -0.03218994 0.70081127
0.54733473 0.72500247 0.91622972
-1.68421090 1.29405880 -0.00383954
-1.70232546 1.26034856 0.04725967
-1.49018252 1.41869235 -0.15649445
-0.48640284 -0.29327706 0.86307925
-0.02781532 1.62106848 0.12158868
0.06914492 -0.26906559 -0.01856111
-0.33333337 1.00370562 0.88021541
-0.00506345 0.98658264 -0.49539629
-0.75124151 -0.31131259 0.69653970
-0.72926474 -0.31005421 0.73993129
0.27090472 -0.30492982 0.65652776
-1.20475852 -0.29943991 -0.19487457
0.05432465 -0.04830415 1.00131214
0.04301354 -0.02671538 1.02063096
-1.63706124 0.52089947 0.41913140
-0.24535270 2.43635345 -0.38648021
-1.49155807 1.85271311 0.92553139
-0.53872067 2.29026437 -0.13624208
0.60456777 1.36743462 0.48445874
0.44522607 1.42124176 0.61373436
-0.25682235 -0.23112078 0.09613233
-0.80641454 0.03350323 0.78778076
-1.49341011 2.10319018 -0.42652860
-1.13240838 1.52293742 0.78653377
0.42936310 -0.30020779 0.46330214
0.55885351 0.94792747 -0.37252089
0.51805919 0.92549849 0.89100176
-1.16711223 0.16026372 0.18822683
-1.10077918 1.41442072 -0.21306694
0.33013877 0.51854241 1.06340110
-1.53753161 0.40374795 0.06394612
-0.51659358 0.29377785 0.80962873
-1.39131904 0.42651749 -0.18892534
-1.17101967 1.66532993 0.73633528
0.21411967 -0.03300322 -0.54456711
0.27241442 -0.01696480 -0.53718030
0.30210268 -0.30974728 -0.19793333
0.50154871 0.16545992 0.88200623
-1.75984991 0.72280037 0.12810156
0.75957501 0.47445959 0.70762885
-0.28798178 0.89932692 1.07448900
-1.29863191 0.94533020 0.84651083
-0.45634115 0.30526683 0.91107464
-0.46117783 0.29647493 0.89622176
-0.37986183 2.41095757 -0.29599270
-0.39825761 1.55075741 0.18018919
-1.78370523 0.89042079 0.24629529
-0.86566401 1.94478869 0.03253037
-0.85850525 1.94947481 0.01176657
-0.67582834 0.68961245 -0.50080985
-0.65203810 0.59303892 -0.58737773
-0.65523034 0.59146863 -0.57354671
-0.62326127 1.52004147 0.14343485
-1.65551066 2.02240634 0.07823763
-1.67957771 2.01621890 0.10115897
-1.47738397 2.59243870 -0.99028307
0.82445174 0.67186511 0.62643623
-0.66090977 -0.32015407 0.43798369
-0.83731759 -0.12224831 -0.43028384
-1.11374986 1.71664131 -0.07856630
-1.38039625 1.47632027 1.05341411
-1.21042752 0.73790920 0.89825147
-1.16949642 0.72515547 0.88744736
-1.59524524 0.84108025 0.69497579
0.24129288 1.55946159 -0.03202389
-0.17725146 1.19950473 0.85847890
0.57164311 0.62337697 0.89464962
0.06975013 1.22103596 0.84174103
0.99851900 -0.00501067 -0.04094179
-0.64886284 2.47760439 -0.30047485
-0.77137452 -0.06632363 -0.39866430
0.04103643 -0.18725617 -0.48977280
0.12621030 -0.03918566 1.00498509
-0.45916644 0.52095658 1.05415070
-1.15840447 2.11144042 0.01132818
-1.55041027 2.23867750 -0.58432293
-0.23446116 0.64312881 -0.77304453
-0.05784984 1.54810834 -0.10519455
-0.97949404 -0.32855403 0.01934993
-0.54028660 2.21534777 -0.28086677
-0.32327181 2.71356869 -0.41020173
1.14145565 0.03592429 0.39260584
-1.24174571 1.24556422 0.73784345
-1.35296547 1.59755421 -0.17948344
-0.81542724 1.18505633 0.75602144
-0.36398181 2.40172052 -0.42502788
-0.67130804 2.11545539 -0.20003955
-0.94838679 1.94948566 -0.05318549
-0.42080340 2.71323633 -0.37019157
-0.54585606 -0.23946136 0.52057230
-0.51678580 -0.23687367 0.52196741
0.36825952 -0.31135872 0.05110424
-1.73381436 1.88849783 0.73563606
-0.35548085 -0.00025675 -0.61154300
1.01704955 -0.06974105 0.06208024
0.99300390 -0.10429303 0.10001245
-0.62444836 1.39561069 -0.20131224
-0.21151501 2.30156636 -0.35609382
-1.67755783 1.94965124 0.72781634
-1.61569929 2.00487113 0.70319563
0.16336295 1.40147364 -0.28595811
0.31376889 -0.15051936 -0.46330956
0.29367661 -0.16746293 -0.46191552
-1.51996803 0.43795648 -0.09297290
-1.74017715 1.21526647 0.17361122
1.20022583 0.22872628 0.37440455
-0.08326297 -0.11150932 -0.54263842
0.71147001 1.22965646 0.49086481
0.07930225 -0.29504669 -0.46359304
-0.40648761 0.00886557 0.92406350
-1.73037660 1.65913534 0.02126793
-1.66021669 1.73580647 0.95332003
0.84096885 -0.01815592 -0.12006874
0.85814232 0.00941442 -0.12880117
-1.78820217 1.26513624 0.80919099
0.69475061 1.28747916 0.34853572
0.37778878 0.03451037 -0.51908976
-1.26560295 -0.20394571 0.31753740
-0.56741470 0.03977342 0.77472526
-0.43371594 0.23407151 0.91513246
0.26578239 1.43545103 0.68162358
0.09076056 -0.26485744 0.91878593
-0.10871104 -0.07751408 0.95067847
-0.37537053 0.63680035 1.14880133
0.60116500 -0.07644924 -0.13411717
-0.07216565 0.02218375 -0.62428468
0.17259277 1.20215261 -0.39237604
0.16473411 1.19755483 -0.39441583
-0.31981024 0.31833953 1.07269931
-1.31465554 -0.31614071 0.26697433
-0.15338653 -0.03191506 0.99087751
0.10910936 1.55512285 -0.09205281
0.69058245 0.80434620 0.80506349
-1.72901142 1.23131371 0.81483519
-1.72447264 1.22133100 0.76656854
-0.90339768 0.91419345 0.86179191
-0.40341514 -0.23252206 -0.02946605
0.56367129 0.03970671 0.76511884
0.84040058 0.85243213 0.54938287
-0.77170604 0.65684581 0.87425572
-1.15532756 -0.04327034 0.70188147
-0.10749702 0.91949046 -0.64082056
-0.07523713 0.93660784 -0.61277473
0.38512003 1.14589608 -0.33323464
-1.58951056 1.25500786 0.92787415
-1.20813692 0.93988794 0.86837029
0.27220449 -0.28850976 0.09807090
-1.36768889 0.86019003 0.84656298
-0.40902323 0.06742839 0.92474782
-0.51273710 0.78906715 0.99273533
-0.20379053 1.48617351 0.64366090
-1.77132702 0.75666308 0.38140309
-0.24710502 -0.02952916 0.97362202
-1.28824687 2.14497995 -0.94312620
-1.62073779 0.44730249 0.17938671
-0.15861766 0.34335801 -0.71304226
0.59200662 -0.22338472 0.52465606
0.60475230 -0.21021505 0.53821331
0.02063042 -0.15679497 -0.49213555
-0.83510256 0.33526728 0.82789832
-0.61115080 2.31218815 -0.11993150
-1.33482802 2.06773472 0.66599232
-0.71864069 2.29388046 -0.28783259
-1.40946579 2.12328506 -0.95033461
0.39271680 1.15080655 0.80858237
-0.29952836 -0.22311358 0.65065533
-0.58945596 1.40312052 0.55774009
0.10513233 1.62288082 0.10259128
-0.96029896 1.38963449 0.59543931
-0.05102476 -0.23997395 0.95025641
-1.43975484 2.50076818 -1.06236267
-1.29773116 0.77898592 0.89577049
-1.31888521 -0.14350972 -0.05008055
-1.53802741 2.03218341 -0.13386278
-1.41916513 2.19709086 -0.88663733
-1.42145073 2.27688742 -0.91725713
-1.38187289 1.54902351 1.02113163
0.39612505 1.49502409 -0.02112396
0.08552039 -0.22458416 0.53253853
1.14038742 0.01934993 0.34654948
-1.28039348 0.44970357 -0.30074951
-1.38104606 0.52151865 -0.30089197
-1.84837842 1.40316010 0.61217022
-0.75947106 0.30274001 0.83321869
-1.35646999 0.27295765 -0.02647947
-0.11801744 0.41582790 -0.72279108
0.71602333 1.11683667 -0.15003671
0.54689431 0.98648453 0.83589482
