0.79298520 0.98749125 -0.11802749
-1.31293285 -0.29245877 0.75989980
-1.31609070 -0.29677930 0.72271281
-0.90592897 1.59949768 0.40402496
-0.89999652 1.59893227 0.38640147
-0.90277928 1.61082077 0.35753068
1.09945881 0.26146510 -0.00110621
1.08347869 0.24438097 -0.02638531
0.24215546 0.91473484 0.99797118
-1.83348274 1.82922292 0.37788573
-1.03627753 0.77403885 -0.43823349
-0.08774839 -0.05574617 -0.59700859
-0.20769367 1.29727280 0.80404741
-0.19262628 1.31577790 0.79736334
-0.87901473 2.23965025 0.11632294
-0.87197781 2.24706888 0.11304178
-0.90014154 2.26799917 0.11239751
-0.89097691 2.27549386 0.10836110
-1.00179708 1.83021069 0.29772192
-1.00251186 1.84049594 0.28435501
-1.00793350 1.87328911 0.26596439
-1.77104175 1.06457150 0.29315928
-1.77725852 1.04146075 0.29192466
-0.20728284 -0.23879106 -0.31653568
-0.15279904 -0.31297526 -0.36862710
-0.20687824 -0.24764164 -0.32438961
-0.21654005 -0.24525170 -0.32545230
-0.21809067 -0.23719627 -0.31649819
0.05682695 0.08023124 -0.61043042
0.05174588 0.06660963 -0.60686368
0.89047062 0.20842074 0.61666256
0.90740740 0.23776025 0.60320151
-0.51810330 1.14821661 -0.43392652
-0.51021814 1.14181912 -0.43799752
-0.54395652 2.25766993 -0.30805439
-0.54901922 2.28371358 -0.32037240
-0.97968340 1.77507544 0.28329775
-0.99249411 1.82862556 0.25050542
-1.21310270 0.21554492 0.45859396
0.74989641 0.54123497 0.73230964
0.76157695 0.56884915 0.71688145
0.05586283 0.26161721 1.13377905
-1.76843965 0.99676150 0.42542413
-0.68371516 0.80022383 0.88298094
-0.89716965 0.56583065 -0.38716522
-0.25115141 2.63839746 -0.49707791
-0.23570955 2.60023260 -0.49391940
-0.22972870 2.60441232 -0.50500256
-1.79219103 0.95703441 0.26474100
-1.79038465 0.97200942 0.26125598
0.24329069 0.78912216 -0.61233169
0.23789275 0.77277309 -0.61646640
0.22823222 0.79540896 -0.61327225
0.24025512 0.81639349 -0.60337490
-1.31005716 2.07613707 -0.01417706
-1.30863798 2.07664657 0.00350408
0.82834595 0.90857804 -0.09470935
0.82688713 0.92245865 -0.08956125
0.83116591 0.94968265 -0.06339493
0.83224618 0.97062528 -0.04881731
0.83104384 0.98409367 -0.04022577
0.83403909 0.99745834 -0.01984364
0.82489073 1.03288221 -0.00963608
0.82531655 1.05436325 0.01638340
0.82070047 1.05682123 0.00669910
0.82332844 1.06635642 0.02851619
0.81001264 1.09317994 0.03390193
0.79759687 1.12101460 0.05233399
-0.86168605 -0.05231681 -0.22497253
-0.10549662 1.35675895 0.78082919
-0.09906915 1.37620544 0.76937181
-0.12265657 1.32481968 0.79530537
-0.11160479 1.35084629 0.78255355
-1.27327800 2.16876864 -0.30929962
-1.27416301 2.16571879 -0.30206978
0.05539624 1.04216456 0.88356256
0.06261854 1.06354833 0.87234801
-1.52349520 1.80985522 -0.11944714
0.36328802 -0.18571009 0.86919641
0.36250487 -0.21829945 0.86074758
-1.56994236 0.67866468 0.71884042
-1.11071384 0.56474560 0.87534368
-1.11232936 0.58376718 0.88456148
0.29619509 1.05057859 0.92915410
0.31106320 1.02320838 0.93901271
0.31897193 1.00904560 0.94067758
0.34645706 0.98152894 0.93970752
0.35778427 0.95717156 0.94242489
0.36231509 0.94912124 0.94315332
0.38244495 0.91060460 0.94638592
-1.12832940 0.78164947 -0.43569508
-1.11734569 0.74511701 -0.43136814
-1.15625846 0.80095285 -0.42711061
-1.14972150 0.78810513 -0.42916423
-1.23927271 2.22570348 -0.57126492
0.01605655 1.11872482 -0.42955503
0.01103388 1.08773971 -0.44206885
0.00355210 1.10337126 -0.43810275
0.65826595 0.72162825 0.84129041
0.67135805 0.74361736 0.83365190
-1.02207673 2.12553024 0.20831779
-1.02194500 2.13798785 0.20098424
0.51666844 1.22892094 0.71650928
0.51344454 1.22563207 0.72091073
0.49609944 1.20117438 0.74677289
0.49455014 1.20226121 0.74656349
-1.07354033 1.33876073 -0.28817600
-1.06136084 1.31805432 -0.30352008
-1.04717219 1.31790841 -0.30688760
-1.01866734 1.27583671 -0.33177480
-1.02490044 1.28737557 -0.32544857
-0.99214756 1.23733151 -0.35247910
-1.00844705 1.25615311 -0.34361377
-0.97719997 1.22174311 -0.35961014
-0.96376771 1.18034244 -0.37450680
-0.96766216 1.20688653 -0.36507952
0.51653415 1.33485568 0.63168848
0.52707595 1.34354472 0.61620295
-0.34372905 0.78307760 -0.75206488
-0.33704680 0.78436148 -0.75148654
-1.47464776 1.80585325 0.95297074
-1.42263758 2.42044353 -0.62469256
-1.42279923 2.42808700 -0.65262681
-1.42716324 2.43851352 -0.68817329
0.03622683 0.41583350 -0.68656456
0.00678334 0.36960882 -0.67762697
0.31624499 0.59373778 1.07117450
0.32145628 0.58704579 1.07103586
-0.63528597 2.45578599 -0.31698135
-0.52265394 -0.19724797 1.08135724
-0.51344192 -0.20930703 1.08318353
-0.05346744 1.43978214 -0.22378653
-0.06575875 1.43420208 -0.23082522
0.27523580 0.09556951 -0.57678610
0.27634192 0.11715662 -0.58226585
-1.68044603 0.61861444 0.46077845
-1.67477214 0.60366678 0.45831892
0.76628542 0.71531212 0.70598978
-0.62224001 -0.16341111 1.02079225
-1.17573512 0.17371733 0.37166518
-0.26596877 -0.12196657 -0.53972673
-0.25274181 0.65592921 1.15015304
-0.45033497 -0.06743417 1.03787482
-0.46179378 -0.09178916 1.05477560
0.27516147 0.16130911 1.00970602
0.25124529 0.10838706 1.02549469
0.26097009 0.12699498 1.02239180
-0.28213838 0.04507992 -0.64698696
-0.27989990 0.01779721 -0.63348711
-0.27443010 0.03471876 -0.64140230
-0.96626103 0.38210905 0.78984636
-0.97716552 0.36225069 0.77424556
-0.07731818 0.48905605 1.17512059
-1.24945199 2.03003144 -0.47941214
-1.23921311 2.07701612 -0.51104277
-1.24315929 2.06103039 -0.51979810
-1.23868227 2.08999825 -0.55065030
-0.52154505 2.47723937 -0.38259044
-0.50721115 2.44264388 -0.38953987
-1.23671985 2.23065782 -0.69684601
-1.14707756 1.74782836 0.65859437
-1.11835849 1.69551027 0.67432016
-1.12721121 1.71737015 0.66498524
-1.52926135 1.96932352 -0.18373907
-1.07636189 2.08157301 -0.05790466
-1.04226375 2.02836227 -0.06959343
-1.05794299 2.04468584 -0.06619197
0.35072055 0.35139653 1.01393127
0.35464877 0.33731052 1.00726748
0.92878407 0.57552260 0.20571716
0.93117994 0.52248281 0.26056474
0.93085831 0.52917403 0.23171405
-0.68143177 0.90956610 0.88631803
-0.68453598 0.92742729 0.88164037
-0.69956875 0.83554190 0.88911825
-0.70867556 0.84544241 0.88770622
-0.69901437 0.89261264 0.88580441
-0.71390802 0.88418949 0.88423473
-1.14829707 2.09426689 0.47869292
-1.14554882 2.08753681 0.51218557
-0.52521384 2.39608288 -0.37362435
-0.52734154 2.39341283 -0.37233272
0.56925869 0.23912035 0.85876751
0.23971428 -0.29024333 0.87316418
0.23141301 -0.29390627 0.86944968
0.37094128 -0.28852084 -0.20078002
-1.81193268 1.81590676 0.44628048
-1.45538461 0.28056607 0.21433944
-1.47196519 0.29769012 0.21595450
-1.48467684 0.31326017 0.23799270
-1.49738562 0.32643652 0.23556729
-1.51358807 0.34555244 0.24223673
-1.52901900 0.36008945 0.25579128
-0.89418197 1.52354646 0.43417186
-0.88951319 1.51993752 0.42502213
-0.47992253 0.28033483 -0.67075777
-0.48565748 0.27513152 -0.66394997
0.51390338 1.26511204 0.69060636
0.51180655 1.24623597 0.70498759
-1.00629687 0.33159038 0.73721802
-1.00055969 0.34249824 0.74781954
-1.00641942 0.34459189 0.74584067
-1.02198195 0.39045891 0.76387113
-1.06353796 0.41851169 0.78706884
-1.07448530 0.43405053 0.79766834
-1.09178853 0.46362600 0.81720614
0.62778467 0.31508788 0.81803638
0.62167543 0.32997808 0.82272005
-1.07481503 -0.06814790 -0.13876617
-1.08264148 -0.09890031 -0.15009931
-0.05273788 -0.25067231 0.27445617
-0.03838358 -0.26413304 0.28416467
-0.01202097 -0.29438093 0.24973945
0.50468445 1.14230287 -0.30267030
-0.53318065 2.39532185 -0.20242882
-0.54546303 2.44891906 -0.19771819
-0.52136868 2.47674465 -0.21723659
-0.50955760 2.49707508 -0.22483739
-0.48353922 2.55447865 -0.23247004
-0.49749592 2.51844382 -0.23174688
-0.46893504 2.57934809 -0.24047907
-0.47429818 2.55714965 -0.24357070
-0.44925177 2.60454750 -0.25338528
-0.45744419 2.59673786 -0.24640915
-1.05982125 1.96333587 0.44358885
-1.06131506 1.98559964 0.45367870
-1.06204808 1.99316227 0.45153999
-1.82366085 1.68427718 0.40634114
-1.83318949 1.66610491 0.41943371
-0.41589376 1.26722717 -0.36245775
-0.42228866 1.27273154 -0.35578915
-0.40542451 1.25744927 -0.37099755
-0.38755694 1.22071314 -0.39388314
-0.39075965 1.24204779 -0.38284743
-0.36455613 1.19388223 -0.41035330
-0.36224017 1.20228124 -0.40439129
-0.34606436 1.17066681 -0.42183131
-0.31940097 1.13298023 -0.43577066
-0.33478573 1.14908361 -0.43220299
-0.30834910 1.12826073 -0.43852952
-0.53378808 -0.28237289 -0.58885360
-0.52871656 -0.27775726 -0.58810174
0.93344223 0.17962751 -0.10048595
0.90887856 0.20806895 -0.08274016
0.90500009 0.19466515 -0.08996611
0.88029099 0.22853228 -0.06352472
0.89598250 0.20368150 -0.08346043
-0.91414756 0.01990959 -0.20289949
-0.91950911 0.04233551 -0.20192046
-1.32250273 1.86559582 0.83108610
0.53031880 0.67555231 -0.46260050
0.51907986 0.68085343 -0.47141182
0.13454053 0.50891477 1.12972522
0.14352895 0.48160669 1.12918448
-1.50904417 2.03067350 -0.22008465
-1.50899041 2.02617931 -0.22201969
-1.32175672 -0.15331058 0.22116116
-1.33088577 -0.16954602 0.22418560
-0.89854419 0.35277411 -0.31359154
0.46945360 0.78970826 0.96021372
0.48168328 0.80792803 0.95032382
-1.09345281 1.03765571 -0.40692472
-1.07853901 1.06354368 -0.40028572
-1.26379681 1.96356618 -0.35639569
-1.26881146 1.95722830 -0.36824375
-1.24387503 2.25140762 -0.64337349
-1.25094199 2.26984382 -0.64596200
-1.29173720 0.19102769 0.29462811
-1.30658042 0.19618633 0.30469793
-1.32918537 0.21042658 0.33477449
-1.35182726 0.22051144 0.33700335
-1.35780799 0.22400588 0.34016216
-1.38515067 0.24124727 0.35906991
-1.27335060 -0.29318431 0.83634901
0.78343296 1.07607877 0.52038062
0.37977421 0.60513866 1.04212093
0.38453308 0.57279927 1.04162705
-1.65373266 1.95182121 0.05367419
-1.65336645 1.91114771 0.03627251
-1.65194094 1.92958701 0.04112396
-0.13221730 0.97963095 -0.53010201
-0.13172673 0.97659683 -0.53727233
-0.01148278 -0.29489487 0.25267488
0.01277034 -0.30816355 0.24053979
0.03089890 -0.31327456 0.22298436
0.16783096 0.55124265 -0.67363840
-0.91662872 1.91151488 0.04530292
-0.90384972 1.92197335 0.07381517
0.33882409 -0.02145549 0.87969351
0.33787268 -0.01333599 0.88687032
-1.63867557 1.84108377 0.00592881
0.91208321 0.68601507 0.35473093
-1.04494262 1.80854237 0.00744980
-1.03593814 1.79372847 0.01750160
-1.03084815 1.78043759 0.02014516
-0.23963548 0.67449957 1.15046287
-1.11793637 1.32900405 0.73035789
-1.09759784 1.35646224 0.72886610
-1.41877234 2.40737581 -1.01437092
-1.41023695 2.38997602 -1.01908779
-1.41479194 2.36535645 -0.99139690
-1.41669691 2.36010599 -0.98402232
-1.76934648 1.28169477 0.53294951
-1.77955878 1.28969884 0.53312981
-1.80072331 1.31331813 0.56122541
1.04341567 0.47319737 0.26550138
1.03028834 0.47241110 0.29179770
-0.46492034 -0.14808227 1.07748163
-0.45391384 -0.16465048 1.07944274
-1.41445589 1.58150470 -0.17967652
-1.27044284 -0.14380884 0.77793443
-1.29893064 -0.19020115 0.76211023
-1.29751194 -0.18991944 0.76529789
-1.31816649 -0.22802128 0.75106782
-1.30575728 -0.19838895 0.75363541
-1.32813334 -0.26029667 0.73971981
-1.31989634 -0.22328939 0.74306321
-0.03838309 -0.22484370 -0.27538106
-0.03468433 -0.21782866 -0.25140479
-0.60949695 2.37231874 -0.33628637
-0.34659272 0.27271900 -0.72911131
-1.14318621 0.58803868 -0.40231624
-1.17417765 0.64188457 -0.41060951
-1.16705096 0.61228770 -0.40470138
-1.17958701 0.62875801 -0.40557656
-1.20097184 0.66922593 -0.40235636
-1.23194265 0.70691913 -0.38786402
-1.22402227 0.69886112 -0.39166820
-1.24695849 0.74862587 -0.38309252
-1.85668111 1.35840797 0.77032924
-1.86345315 1.39109993 0.78158343
-1.60089815 1.02133560 0.65644747
-1.60969126 1.03637636 0.64181769
-1.61625016 1.07166278 0.62156332
-0.98587018 1.08080316 0.80829841
-0.91103142 1.63475943 0.30603865
-0.91362798 1.64051390 0.29945251
-0.91663212 1.64777565 0.28533167
-0.23839641 -0.31368747 -0.38267520
-0.27833483 -0.27701586 -0.35395113
-0.29527900 -0.24208787 -0.33440712
0.72820991 0.62894088 0.75155842
-0.96117896 1.59837770 -0.00076948
-0.95661670 1.61696291 0.02436587
-0.94129324 1.57844150 -0.00521744
-0.94985557 1.58499062 -0.00232416
-0.52050519 0.05004683 -0.53454232
-1.42445076 2.44688368 -0.72010362
-1.42014968 2.45042443 -0.73460907
1.16569459 0.42845926 0.27777871
-0.10767136 0.59085524 1.15578556
-0.77904963 1.52282989 0.40622619
-0.78211194 1.52845275 0.38924852
-0.70525330 2.12281370 -0.20849632
-0.71839023 2.15331054 -0.22869517
-0.35820460 0.14454003 1.00180113
-0.35579824 0.13433227 1.00079834
0.90746719 0.61153543 0.44227150
0.26264808 0.45396203 1.07724166
0.27181214 0.44635254 1.07320368
0.30069432 0.38986748 1.05079186
-0.99009770 1.64695799 -0.00584455
-0.98474425 1.66212749 0.01605650
-1.69859636 1.52687049 -0.06659337
0.56780249 1.19086432 -0.23940264
-1.11533272 2.02192116 -0.03815597
-1.10343874 2.03565454 -0.04224152
0.38321465 1.12180436 -0.34566244
-0.84756178 1.23164797 -0.35107625
-0.85981381 1.24910438 -0.33584163
-1.02711260 0.10485840 0.37120897
-1.01172984 0.08070154 0.36513513
0.51564097 1.40031791 -0.05969546
-1.20550132 1.16434240 -0.33711869
-1.20295298 1.17421389 -0.33408687
-1.19680512 1.16961706 -0.33829147
0.08904053 1.56545067 0.55868757
0.09004727 1.58220315 0.53108215
0.40730232 -0.25950563 0.78262717
0.41852736 -0.23746806 0.80102789
0.40422460 -0.21892895 0.83414900
0.40254486 -0.24160239 0.81900752
-0.85532367 2.31219029 0.08722033
-0.73079228 -0.28502935 0.25826773
-1.28115630 2.05777574 -0.10373677
-1.27843952 2.05969095 -0.12051681
-1.28027725 2.06617284 -0.13151862
-1.28532112 2.07591391 -0.13803567
-1.28022456 2.09032178 -0.17951579
-1.31083739 2.14646959 -0.18552789
-1.32604408 2.15441012 -0.17376241
-1.29142201 2.13097072 -0.20476909
-1.30011535 2.13972759 -0.19668528
-1.61848772 1.18418300 0.61262703
-1.62623858 1.18966365 0.60017580
-0.90786582 0.27942321 -0.27451327
-0.93478650 0.14630958 0.74929464
0.30790430 1.27702069 -0.31865168
-0.89269710 0.34526905 -0.31178924
-1.54250824 0.89154816 0.74353814
-1.53937030 0.86426872 0.75394493
-0.41109392 -0.24908420 -0.35803616
-0.40521431 -0.23865397 -0.34514934
-1.22383118 0.17545912 0.32207572
-0.63529611 2.22163844 -0.28038472
-0.63345343 2.21119833 -0.27528033
-0.65933806 2.24133444 -0.28616330
-1.23980975 2.30628014 -1.08781576
-1.23695493 2.33280110 -1.08498538
-0.21917486 2.48673391 -0.56870502
0.31052732 1.44044423 -0.18437997
0.32225895 1.42436850 -0.19644445
-1.52176428 1.73916996 1.00090802
-1.51149976 1.71873331 1.01173055
-1.51697528 1.70507717 1.01947165
-0.59575319 2.33454990 -0.13988644
-0.88107127 -0.07263977 -0.22104229
-0.89049619 -0.09368192 -0.22367518
0.01090984 0.60396892 -0.71135080
0.01700412 0.63185340 -0.71247602
0.29559249 0.83081418 1.03199005
-1.38820565 2.33620024 -0.43238217
-1.38729215 2.33759642 -0.43675616
0.61308324 0.67061448 -0.39733472
0.60844439 0.69032842 -0.40120089
-0.56030011 2.37054396 -0.35419431
0.91725564 0.67740226 0.29466036
0.91582948 0.70885992 0.27257144
0.92123240 0.67115438 0.23995960
0.92333341 0.65064180 0.23830627
0.92954928 0.55263096 0.25314027
0.92942184 0.55998611 0.24965712
0.92839760 0.56093073 0.26624325
0.92616946 0.60031152 0.26696333
-0.01313507 -0.14900522 -0.49843329
-1.24345124 1.13011491 0.79404008
0.00903497 0.65041173 1.14869595
-0.01351241 0.66759384 1.14954746
-0.02006819 0.69787252 1.14856219
-0.96233767 -0.17145319 -0.23041807
0.11649549 1.56156051 -0.08018392
0.12310551 1.56427920 -0.07310911
-1.39919078 2.40368819 -0.58929110
-1.39414632 2.39361143 -0.56366813
-1.11525261 1.95016026 0.59623444
-0.38420409 1.47112966 -0.11769763
-0.39995602 1.45462811 -0.14648536
-0.41527253 1.44529510 -0.15915757
-0.42284191 1.44001639 -0.16538659
-0.43452349 1.43216658 -0.17456841
-0.47662440 1.39168537 -0.22659031
-0.48721597 1.38110864 -0.23808607
-0.49186489 1.37979066 -0.23920932
-0.50021046 1.30675387 -0.30446765
-0.49090970 1.29413056 -0.31509969
-0.50905424 1.36658525 -0.25241527
-0.50859940 1.36059690 -0.25898013
-0.51721799 1.32989883 -0.28692055
-0.50367147 1.30413008 -0.30614853
-0.52611649 1.33202028 -0.28510687
-1.18737340 0.16846870 0.15766892
-0.80036241 1.20912623 0.73676914
-1.09871078 1.82548451 -0.03954661
-1.08663642 1.79912043 -0.03336095
-1.07983851 1.77583981 -0.03120659
-0.94427991 0.39507535 -0.30758876
-0.93406141 0.38878766 -0.31067413
-0.96295309 0.42223734 -0.30752733
-0.58039629 0.24104455 -0.51570368
-0.58073372 0.23070501 -0.50578886
-0.57864988 0.20509839 -0.49362224
-0.96614993 1.68541729 0.09556638
-0.76383322 1.56563890 0.13905860
-0.79873526 1.57264555 0.17968689
-0.81871724 1.57597089 0.17795935
0.92144358 0.69979841 0.19293478
0.72024006 0.90869892 -0.23726195
0.72138500 0.91122520 -0.23541167
0.07252104 -0.16589005 -0.48274651
0.05916686 -0.18999766 -0.48554042
0.07375076 -0.21923463 -0.48747560
0.06141017 -0.23063250 -0.48971635
0.03504704 -0.27192208 -0.48738134
-0.24842735 1.23166239 0.83140868
-0.23258772 1.27613878 0.81053889
0.59065193 -0.11758303 -0.11671826
-0.93330896 1.59230709 0.03018703
-0.57270932 1.50920689 0.12478584
-1.03841090 0.05898156 0.47040147
-1.03326344 0.06239697 0.45490086
-1.55810344 2.44626093 -0.78944349
-0.03951348 0.61556208 1.15199733
-0.04360591 0.59918433 1.15560603
-0.01084597 0.57674086 1.15892184
-0.00981174 0.56507462 1.16196454
0.00767796 0.52585816 1.16222906
-0.67561072 1.05337906 0.82694232
-0.67026013 1.05881476 0.82572186
-0.69646591 1.02606237 0.83524448
-0.70135713 1.03034699 0.83127618
-0.52081734 1.45512605 -0.10313387
-0.53543675 1.43684804 -0.14261948
-0.56057340 1.41729081 -0.17530432
-0.58052921 1.41456962 -0.17914695
-0.62089711 1.20014703 -0.36697486
-0.63397813 1.19837296 -0.36811584
-0.62804890 1.36333072 -0.24922183
-0.62866843 1.35943031 -0.25410950
-0.64304703 1.35521924 -0.25849479
-0.66918308 1.33849323 -0.27236581
-0.66617215 1.32522798 -0.28835142
-0.67539811 1.31963754 -0.29347947
-0.69021028 1.30115879 -0.31176674
-0.67241329 1.27016711 -0.33877525
-0.70309830 1.30009317 -0.31677553
-1.02739751 1.98686886 -0.06173627
-1.03575683 2.00599575 -0.06583548
-1.04438269 0.06468237 -0.14334555
-1.03992796 0.05446913 -0.14447029
0.30289283 0.46700469 1.06044221
0.26412901 1.06328475 -0.42205635
0.26893738 1.05032349 -0.43312520
0.25351435 1.08042777 -0.40414378
0.25692695 1.08551073 -0.40131846
-1.66073096 1.21351850 0.57373089
-0.57926303 0.18307444 -0.47971100
-0.57927024 0.16625693 -0.46467879
-0.58207333 0.14163180 -0.45076025
-1.25213432 1.93674874 -0.19904780
-1.88939619 1.50278914 0.37561333
-1.62197459 1.19169927 0.73221135
-1.63768697 1.19859660 0.73927844
-0.47990820 0.78280520 -0.72085512
-0.46577391 0.78723305 -0.72313559
-0.55359834 0.79933411 0.92298913
-0.54158312 0.81813002 0.92616886
-1.45467317 2.06326962 -0.75098228
-1.46008909 2.02417111 -0.76651239
-0.94305056 0.93026888 0.87383026
-0.61278057 2.12453175 0.00481636
0.31042936 1.41860974 0.67255396
0.30511421 1.38173485 0.70529407
0.30633962 1.39353836 0.69709426
-1.86251223 1.38205087 0.23895717
-1.85865390 1.36131155 0.23823415
-1.85946453 1.34850097 0.25629300
-1.85798705 1.33827806 0.26022550
-1.85407519 1.31375408 0.28098106
-1.35677719 1.05616796 0.80268574
-1.00622916 1.14865208 0.77964205
-0.99456877 1.18298602 0.76749271
-0.24691005 2.65679932 -0.56919736
-1.12531292 0.24842598 0.58259130
-1.12971854 0.25506476 0.59363478
-1.61946499 1.64928412 1.03151691
1.15667892 0.38194016 0.11007240
1.15556431 0.37507606 0.09908631
1.13137472 0.40873951 0.11562569
1.13500869 0.40219083 0.10919803
-1.28834999 1.78626621 -0.14880569
-0.74863350 0.26195011 0.82677478
-0.71915841 0.29861245 0.82509094
-0.72323930 0.28768745 0.82498664
-0.70235300 0.33502460 0.82261008
-0.70619631 0.31492707 0.82062417
-0.68007112 0.33836821 0.81353074
-0.65678775 0.38921574 0.81157106
0.41211480 1.40548551 -0.15589769
-1.56052876 2.37226820 -0.64917749
-1.55306232 2.38690686 -0.66366571
-1.24794281 2.30589128 -0.88320976
0.59374100 0.06795041 -0.33424300
0.59179515 0.04015024 -0.32437769
0.12089888 0.36943671 -0.65407032
0.11386538 0.30026257 -0.65436023
0.09896633 0.34122348 -0.65621364
-1.40137887 1.02176964 -0.28902701
-1.40961194 1.00084388 -0.29279712
-1.41877294 0.99615109 -0.29101437
-1.43608665 0.96260637 -0.29446584
0.31349543 0.65723455 1.04784179
0.31534076 0.67281061 1.04134309
0.29815027 0.64025688 1.05879498
0.29298338 0.62873250 1.06509984
0.27991909 0.58485198 1.08288264
0.27983955 0.61242855 1.07479751
0.41307020 1.18266439 0.78330314
-0.24616472 0.83862484 1.12528706
0.94127840 0.23487402 -0.06910326
0.96176589 0.22158773 -0.08014584
0.94824547 0.23772235 -0.06865035
-1.45416057 0.94729227 -0.29112449
-1.03908789 1.95238018 0.35668334
-1.03988969 1.92646587 0.34640902
-1.48653793 1.98510957 -0.49962559
-1.50181377 2.01781774 -0.51578587
0.56310302 0.89400405 0.87164629
-0.28664213 0.92004961 -0.63680577
-1.05799484 -0.30891493 0.86150748
0.12508711 0.90785736 1.04781222
0.12949924 0.88889730 1.05581534
-1.01908040 1.82821774 0.03384641
-1.02593040 1.83292496 0.02314799
0.12101133 1.50258005 0.65089512
-1.24726987 1.99408960 -0.26203886
-1.24967897 1.97983062 -0.26563257
-1.47272658 0.93141472 -0.28664914
-1.47818565 0.91907716 -0.28640664
0.42199165 1.50469124 0.03291143
-0.62489331 -0.11439343 -0.57084984
0.54340535 0.83686715 0.90066010
0.51287121 0.89836061 0.90772200
-1.27413762 1.75015926 0.76424903
-1.27145171 1.72866905 0.76194680
-1.26793361 1.72869885 0.75749749
-1.23766875 2.29627752 -1.12560868
-0.99881291 0.02878555 0.33529678
-0.02845040 0.59362149 -0.72300750
-0.04631634 0.56853426 -0.72667921
-0.07257937 0.53853858 -0.73667866
-0.09389221 0.50879073 -0.73645902
-0.10084075 0.49290386 -0.73273641
-0.13453718 0.45352194 -0.72958237
-0.98913348 0.03100807 0.71272749
-0.96780437 0.06839611 0.71981633
-0.97309107 0.05763218 0.71728611
-0.74990028 2.09569407 -0.18408932
-0.96501350 1.02178776 0.84287512
1.08463681 0.20055987 0.56281227
-0.59216267 1.00559855 0.86457825
0.76991075 0.77743655 0.69847125
0.75251144 0.74421221 0.72203076
0.72068441 0.67728853 0.76046199
0.72736180 0.70104861 0.75267506
0.71771687 0.68980616 0.76468748
0.70799172 0.63028610 0.77963525
-0.22846621 1.04022717 0.87867647
-1.63651514 0.48986083 0.07161149
-1.61956716 0.46716595 0.07897388
-1.11684895 1.66890025 0.69377154
-1.09805608 1.63061118 0.70250738
-0.30636293 2.47705746 -0.36926734
-0.30669484 2.45291972 -0.35879213
0.04421673 0.74729425 1.13659120
0.03192861 0.73698020 1.14001727
-0.72296113 -0.12297266 0.88254470
-0.70269138 -0.09429488 0.88211697
-0.71694535 -0.10752987 0.87804782
0.02124096 1.63166690 0.23625307
0.02509847 1.63143873 0.22500625
-0.93240738 -0.18387179 0.88735950
-0.21531431 0.66073787 -0.76872790
0.28529966 1.00142992 -0.45607698
0.28182474 1.00064123 -0.45618963
0.58053255 0.09756844 0.79401076
-0.20540442 -0.07283041 0.96080148
0.49550983 0.55589437 0.96861005
-1.32442474 2.37853646 -1.17266214
-1.55719900 0.88834447 0.72743028
-1.55439699 0.91635972 0.72612083
0.63101697 0.69672167 -0.39014196
0.64276159 0.73630500 -0.38610446
0.87881583 0.47840464 -0.03292832
0.87653881 0.45217389 -0.01866971
0.87546217 0.48960134 -0.04708477
0.87041450 0.52740848 -0.06937864
0.85959768 0.56224239 -0.09187499
0.86420131 0.54856461 -0.08417864
0.85272825 0.56557620 -0.10404854
0.84467179 0.59374684 -0.12133151
-1.54072654 2.23956275 -0.35891035
-1.54448247 2.23086214 -0.35828355
-1.29482770 2.06762481 -0.78018898
0.36840791 0.75052923 0.98940974
0.35616890 0.77444732 0.98767996
0.34643769 0.80149961 0.99358976
0.35653275 0.79886353 0.98103547
-1.23197448 2.15429163 -0.50239956
-1.23281348 2.17083907 -0.50423729
-1.55523407 0.37734631 0.26978880
-1.57554507 0.39221165 0.28159916
-1.57850277 0.39471343 0.28618544
-0.97236168 1.39986837 0.61064231
-0.96955746 1.39368999 0.60630131
0.45095447 0.66574925 0.99471629
-1.23932564 2.06476283 -0.42884263
-1.24478495 2.04356408 -0.42870373
-1.23710179 2.07424378 -0.42589951
-1.23481238 2.09898853 -0.41570839
-1.68469536 0.64520884 0.52323979
-1.68707132 0.66037595 0.53092390
-1.66205466 0.58953071 0.49077681
-1.65969574 0.58793014 0.51255071
-1.67442489 0.61564070 0.52127326
-1.69920170 0.72219837 0.53347605
-1.70548582 0.73080593 0.52739114
0.51503891 0.59496331 0.95470661
0.51987833 0.62170458 0.94726664
-1.73273909 0.67477936 0.20251402
0.47998488 -0.08011611 0.78980792
-0.00296463 1.33634257 0.80117482
0.33968416 1.33370256 0.72476161
0.08987492 -0.21750118 0.91665351
0.10032517 -0.24004841 0.91624290
0.07299799 -0.21499723 0.91891354
-0.22978865 1.38636827 -0.27507433
-0.22410958 1.40932202 -0.25029939
-0.21072814 1.42191243 -0.23733452
-0.17619474 1.43897617 -0.22738777
-0.18910870 1.43846130 -0.22371085
-0.16252950 1.45741916 -0.21287327
-0.16866535 1.47600627 -0.19465740
-1.24908555 2.02079558 -0.38986155
-1.25509334 1.99403417 -0.37301359
-1.14158297 2.00719357 0.63510978
0.67367393 -0.11906990 0.58839506
0.32405576 0.26265270 -0.58082616
0.31126991 0.23551832 -0.57754898
0.30235955 0.22204849 -0.57571703
0.29002112 0.20945311 -0.57655120
0.28677732 0.16486239 -0.57883364
0.31981060 1.42099190 -0.20287827
0.32135320 1.40987730 -0.21516646
0.04277726 0.91097653 1.07709646
0.03818834 0.90136170 1.08504617
-0.34001940 0.40220383 1.09000969
-0.34180129 0.40478581 1.08988237
-1.69203639 1.40091181 0.98086268
-0.37925413 -0.09574848 1.04214370
-0.37795424 -0.11846608 1.05057681
-0.34837982 1.04430485 0.87359858
-0.34162989 1.06118393 0.87161797
-0.72763729 0.97912556 0.85284299
-0.71513867 1.01434982 0.83709788
-0.76609015 0.92600638 0.85522968
-0.75533187 0.94701082 0.85234314
-0.78799105 0.90017724 0.85290891
-0.77441323 0.93605077 0.84951276
-0.80374563 0.87805945 0.84992480
-0.79289341 0.90599978 0.84973419
-1.33785832 1.08886671 0.79396099
0.54773152 0.70715415 -0.44401622
0.27394873 1.59132624 0.38405004
0.28994551 1.58587003 0.38094726
0.45444435 0.48451298 0.98035121
0.45716119 0.48634723 0.97863901
-1.81750512 1.66989672 0.52095437
-1.80953526 1.68380105 0.51433027
-1.79774308 1.70270729 0.50410753
-1.79924297 1.70944202 0.48484576
0.34567320 0.54502380 -0.57229966
0.36299539 0.56586093 -0.56579143
0.37333822 0.57940406 -0.56089681
0.37806955 0.58866757 -0.55804491
0.72628564 0.38136616 0.74469584
0.71211350 0.40899774 0.75691861
-0.04000084 1.18566275 -0.42714471
-0.54965055 1.06264544 0.84947950
-0.53964943 1.09698057 0.82979375
-0.55613279 1.05713749 0.85082471
-1.24751019 2.28399086 -0.99127555
-1.24694228 2.30293989 -0.97919983
-1.24726570 2.33132815 -0.95842433
-0.94830894 -0.24129026 -0.27780652
-0.94452268 -0.22813877 -0.27592829
-0.94552308 -0.29288036 -0.32188684
-0.94755697 -0.28245527 -0.30810779
-1.13410747 0.58341146 -0.40277353
0.28663459 0.08632798 0.98396790
0.27937207 0.06619416 0.98009634
-1.76648974 1.74861300 0.16668130
-1.76184726 1.77009857 0.18828455
-1.76351559 1.82632267 0.21945207
-1.76860714 1.84599495 0.23222026
-1.02235258 1.68343079 -0.02590993
-1.61033273 0.73344731 -0.16011715
-0.94392538 0.98103750 0.85765928
-1.28144002 1.67833328 0.79717463
-1.28749204 1.70457101 0.79751134
-1.28231287 1.71182227 0.78624374
-0.54248118 1.51237631 0.29467383
-0.55330980 1.51460803 0.26125854
-0.56487417 1.51347911 0.26512140
-0.55989134 1.51478958 0.23488387
-1.14862287 2.12285638 0.21596846
-0.86455303 1.55665135 0.34624526
-1.80506516 1.68907475 0.18810752
-1.79376543 1.71090817 0.19568358
-1.23947334 2.35234427 -1.05578327
-1.31634521 1.67394936 0.85992306
0.00745236 -0.21747184 0.93302023
0.00732136 -0.18699746 0.93239379
0.55401337 0.25289765 0.87242454
-0.98265660 1.73828566 0.10269813
-0.43942648 -0.29546022 1.03638518
-0.44148096 -0.30301681 0.99297428
-1.15433598 0.52561885 -0.37836024
1.14994538 0.02887870 0.22084337
1.16477370 0.06116314 0.21385580
1.17611539 0.09415007 0.20455441
1.16324651 0.05554676 0.21810499
1.17403698 0.09374657 0.19488640
1.18250740 0.12841614 0.17186025
1.18482625 0.14176820 0.16119628
1.19416082 0.21078369 0.12392361
1.18926132 0.23803379 0.10715906
1.19290972 0.20640987 0.12260630
1.18397987 0.26235020 0.09906880
-1.85107386 1.43903029 0.58800048
0.76364726 1.18719137 0.35210937
-0.75783986 -0.30196822 0.83825743
-0.75683737 -0.30875149 0.80164671
-1.23318899 2.20624137 -0.61416388
-1.23239422 2.20134711 -0.61346394
-0.44897881 2.40560198 -0.25594869
-1.29080701 1.74980235 0.80008167
-1.27468991 1.85676110 -0.16272219
-1.29335594 1.83631766 -0.16109477
-1.74544144 0.71510339 0.39617488
-1.73228312 0.69039333 0.38448256
-0.38827029 2.43843818 -0.30355802
-0.38712654 2.42240214 -0.29760942
-0.55627292 0.53671318 -0.71461493
-0.56404668 0.52485090 -0.70784891
-1.75206017 0.71217293 0.09952463
-1.76031101 0.73787075 0.09669267
0.76854879 1.13964736 0.48027134
0.77840918 1.12165749 0.47611713
1.19293070 0.28531328 0.40757531
-1.21533048 1.85938621 -0.08674975
-1.36955202 1.62133896 0.96538764
-1.35817492 1.59585714 0.96888679
-1.34857190 1.59186804 0.96171707
-1.32457888 1.55256093 0.96547198
-1.19302940 1.63676155 0.76442891
-1.19280648 1.65144563 0.75646222
-1.20269465 1.62092805 0.77697212
-1.20350349 1.62561190 0.77495509
-1.21361685 1.59157026 0.79693747
-1.20965242 1.59911013 0.79094857
-1.76028407 0.95640147 0.47178945
-1.75079751 0.99112439 0.47632220
-0.74785864 2.10078168 0.07504636
-1.03290677 1.18865693 -0.37342894
-1.01864135 1.19794440 -0.37203392
0.09515207 1.59050584 0.51365566
0.07541885 1.60342324 0.48173320
0.07242260 1.60954463 0.46174511
0.05207394 1.62751293 0.35881650
0.03320177 1.63300586 0.30365717
0.02874574 1.63232851 0.30967116
0.01754352 1.63123333 0.27953187
1.07083869 0.08717526 0.54403389
1.06311643 0.06999902 0.54090941
-1.33573949 1.51310790 1.00244331
-1.33631122 1.51687932 1.00091577
-1.35819542 1.53758192 1.00860548
-1.35922909 1.55165482 1.00094235
-1.37979567 1.55980003 1.01282156
-1.38532472 1.57209682 1.00955498
-0.76213837 2.41056299 0.02283236
-0.62604207 1.16248822 -0.39158985
0.97963643 0.20140585 -0.08891327
0.97492415 0.21784429 -0.08193508
-0.48440933 1.24160206 -0.36106592
-1.14571083 0.15801878 0.01875704
-1.14285660 0.15166870 0.01525087
-0.81078637 0.58953941 0.86049670
0.89165556 0.92070645 0.18702568
0.89518082 0.90249896 0.20240416
-0.96644258 1.68460226 0.44286060
-0.97620094 1.71532476 0.40002778
-1.46143186 2.28079891 -0.80384696
-1.45267320 2.25122905 -0.79793674
-1.45398378 2.22300577 -0.76751721
-1.44953501 2.19945359 -0.76106763
-1.45722353 2.07321572 -0.70814031
-1.45317566 2.20765853 -0.75472808
-1.45101476 2.18052077 -0.73691195
-1.44823062 2.14995670 -0.72563362
-1.44923949 2.13103461 -0.70996606
-1.45230770 2.11301875 -0.68734443
-1.45177901 2.10617924 -0.69241810
0.57981151 0.39180413 0.83951294
-1.31862080 1.12049043 0.78384387
-1.32393444 1.09867299 0.79377949
-0.37741184 -0.26726264 -0.55381542
-0.39018020 -0.27678972 -0.55603486
-1.54938567 2.13892841 -0.27325049
-1.54750371 2.14109325 -0.26085988
0.16279323 0.53285158 -0.67776024
0.14697975 0.50612140 -0.68218178
0.14473106 0.49025765 -0.68117476
0.14111362 0.47473720 -0.68050998
0.12190659 0.47625738 -0.68677622
0.10926379 0.44491214 -0.68456805
0.09752850 0.43695143 -0.68496794
0.08767205 0.40832219 -0.67738092
0.07305701 0.40540013 -0.67722648
-1.63215494 0.82560414 0.65521884
-1.63177562 0.81266904 0.65571517
-0.95418990 1.95370936 0.18196367
0.29573840 1.57618904 0.41790223
0.30042765 1.56715846 0.44951072
-1.28053558 0.53824288 -0.35426253
-1.27956331 0.52144760 -0.34886178
-0.31942755 -0.10490850 1.02249515
-0.31150436 -0.10817517 1.02173591
0.66262740 0.57332480 0.83374500
-0.42541909 2.65541267 -0.26179922
-0.42999443 2.63233280 -0.26641825
-0.78633898 0.68824488 -0.43551219
-0.81476468 0.71487349 -0.42907283
-0.80258787 0.69267601 -0.43059659
-0.82607466 0.74235690 -0.42999300
-0.96179050 1.69730568 0.13895668
-0.97233897 1.73326695 0.15374637
0.77346689 1.15324783 0.42094937
0.86651081 0.24929804 -0.04964248
-1.15361905 0.54402131 -0.38434207
-1.14071143 0.52739763 -0.38022447
-0.64425749 -0.32252857 -0.42957923
0.40031731 1.35129571 -0.22653249
0.39918393 1.31860971 -0.25806552
0.38464922 1.30670905 -0.27318749
-1.23109221 2.12832069 -0.53346795
-1.23016250 2.13768244 -0.53733987
-1.23600268 2.11067080 -0.55838799
0.03412667 0.07259923 1.07062030
0.04218626 0.05429629 1.06573319
0.05525502 0.04699564 1.06438434
0.90798843 0.63656962 0.42991242
0.88222414 0.93794525 0.27169183
0.90523607 0.67152858 0.42978713
0.88731217 0.91349274 0.28832659
0.89155507 0.88826746 0.30787641
0.88863629 0.90015292 0.31612355
0.89850312 0.81665874 0.35781229
0.89808029 0.80394560 0.38010877
0.89641714 0.82452530 0.36987534
0.89924425 0.78657722 0.39256135
0.90257102 0.73676240 0.41731104
0.90053028 0.76117462 0.40841585
0.90172070 0.69667703 0.44296780
0.90126747 0.74190480 0.42482191
0.90232044 0.67439049 0.44447514
0.89958769 0.70793802 0.44806650
-0.58679771 0.76173526 0.89040720
-0.58769357 0.73520863 0.89030504
0.63606942 -0.08071857 -0.12292505
0.64010799 -0.06943429 -0.12416968
-0.68026614 2.28220010 -0.29715616
-0.66393024 2.25069618 -0.28920317
0.83587742 0.53411812 -0.13109574
0.84217101 0.51006246 -0.12151513
-0.72059405 2.44683313 -0.00472541
-0.72204125 2.46208072 -0.01524657
-1.10293305 1.74336624 0.62309444
-1.11146843 1.76680851 0.61901402
-1.12119269 1.78243053 0.62603605
-1.13812971 1.80782306 0.63137692
-1.14346755 1.80992579 0.63532239
-1.14955652 1.82417595 0.63677472
-1.12539124 1.86429477 0.62314725
-1.14039516 1.84215748 0.63061732
-1.11487126 1.87113762 0.61506921
-0.52148038 -0.30689818 -0.40626237
-1.16883969 0.57486618 -0.39016095
-1.16749001 0.55502027 -0.38436681
-0.78001130 0.21182086 -0.23978734
-1.77791429 0.94905031 0.41275823
-0.24911559 0.21393427 -0.71845287
-0.24013960 0.24573192 -0.72558105
0.13698125 0.20913294 1.09272349
-0.95559061 1.36232996 -0.29116121
-0.95339549 1.35688245 -0.29452699
-0.99248052 1.40716720 -0.25706670
-1.01733613 1.43104160 -0.22960767
-1.00105619 1.41112781 -0.25185254
-1.25756752 1.11235380 0.80300766
0.21210548 0.22321124 -0.59882039
0.21507095 0.21378388 -0.59583890
0.39446634 1.49175191 0.52570450
-0.71721900 0.10085349 -0.21156697
0.11081667 -0.23038284 -0.21477978
-0.47147852 0.81550169 1.02834225
-0.45402512 0.84351552 1.02555740
-1.68712127 1.19129121 0.49966124
-0.88817286 0.56724513 0.84552461
0.35321891 1.04949224 0.91341925
0.35749510 1.02940083 0.92363077
0.43366620 0.22895506 0.95039910
0.44679737 0.22209422 0.94142050
0.44704098 0.20862558 0.94078732
-1.08589017 1.26643765 0.70875859
-1.07403159 1.23887396 0.72433853
-1.07003438 0.02592811 0.23222837
0.15246542 0.37598887 1.10755575
0.15490928 0.37770385 1.10753500
0.29533651 0.30039391 1.03926337
0.29432541 0.28033045 1.03293550
0.31374446 0.24413739 1.00611651
0.31882823 0.21543489 0.99505734
0.33344412 0.21283638 0.98851788
0.34028596 0.20235771 0.98414260
0.34477168 0.20414436 0.98321706
0.36725464 0.15338525 0.97544318
0.38375536 0.12079123 0.96423912
-1.85222161 1.40539420 0.62929070
-1.85220385 1.38094592 0.64416587
0.50444531 0.60009384 -0.49435878
-0.99252009 1.84095669 0.23277086
-0.98591459 1.80833936 0.24673635
0.37394634 -0.16909719 0.86623716
0.36574081 -0.13910368 0.87225282
0.37904006 -0.08510430 0.85357505
0.38716978 -0.06354310 0.84115857
0.36828074 -0.09804494 0.86336136
0.36124796 -0.11492731 0.87055022
-1.31273842 1.54216003 0.95991397
-1.31017888 1.53092170 0.96316177
-1.28891408 1.49782002 0.95156777
-1.28685236 1.50276315 0.94618112
-1.27472782 1.48089528 0.93472612
-1.27031624 1.45600986 0.93392324
-0.56881297 2.37291789 -0.35153571
0.42298225 -0.02601249 0.82211000
0.41978198 0.00392337 0.84306860
-0.48552734 1.49265468 -0.02061676
-0.49257526 1.48582649 -0.03234063
-0.20246361 0.15802082 -0.68130273
-0.18755835 0.19286221 -0.68916041
-0.17733259 0.22123446 -0.70005488
-1.05391562 1.82496035 0.47374830
-1.05661726 1.83782220 0.48137262
-1.05279303 1.79753244 0.49427217
-1.05567634 1.81493461 0.49397597
-1.05692875 1.87729454 0.43496892
-1.05583572 1.85868490 0.44642311
-1.49692857 0.33202735 0.31974322
-1.49737310 0.33272266 0.32138357
-0.88099295 -0.31705227 0.57895929
-1.26346266 1.78836310 0.74791121
-1.44831645 1.61786830 1.02377319
-1.44856811 1.62847865 1.02042913
-1.46301842 1.62237358 1.02951396
-0.70289606 2.04521847 0.00626646
-0.71874028 2.02844095 -0.00397826
-0.46153092 2.51567245 -0.26653248
-0.44746447 2.54923344 -0.27643949
-0.45231807 2.52037191 -0.27427346
-0.42798880 2.56781220 -0.29389411
-0.41249391 2.61169624 -0.30100781
-0.41230348 2.59503675 -0.30560204
-0.40264460 2.62643194 -0.30816993
-0.38110024 2.67089009 -0.32304919
-0.38711014 2.64685249 -0.32226533
0.16385303 1.62620676 0.17867815
0.19130759 1.61954236 0.16247609
0.24029012 1.60371828 0.12858368
0.26572719 1.59375083 0.11156623
0.25910270 1.59744906 0.12306599
0.27800477 1.58721173 0.09459202
0.30885637 1.56990409 0.06912980
0.29991269 1.57544792 0.07841121
0.33388400 1.55766523 0.06353417
0.36565748 1.53118932 0.02284081
-0.56202918 1.49599719 0.03691897
-0.57987112 1.50217748 0.06921783
-0.56691736 1.49926710 0.05739817
-1.13161910 2.05346489 0.59617150
-1.12297010 2.05538583 0.57825434
-1.15562856 2.06191230 0.61457330
-1.13873518 2.06202269 0.59369278
-0.30487067 0.90843791 -0.64836097
-0.31548938 0.88491189 -0.67412871
-0.34248590 0.86877501 -0.69025302
-0.33882445 0.84661883 -0.71216184
-0.31979147 0.82644242 -0.72844416
-0.32862312 0.84516281 -0.71367908
-0.30193576 0.82081115 -0.73392242
-0.28117177 0.77247083 -0.75812757
-0.27593577 0.78472054 -0.75216067
-0.43894273 0.51652688 -0.77629876
-0.45439914 0.51146364 -0.77209747
-0.47245482 0.53868294 -0.76599544
-0.48400602 0.57458389 -0.75973034
-0.51063931 0.59317023 -0.75020105
-0.52445751 0.62713516 -0.74395889
0.06520846 -0.29952261 -0.31236750
0.05694097 -0.30221358 -0.31719822
0.03046744 -0.25172102 -0.28934956
0.00740354 -0.23868233 -0.28477263
0.30032390 0.40334791 -0.61454433
-1.76393628 1.80046439 0.77910978
-1.77717400 1.76285446 0.77757519
-1.75850022 1.80612290 0.78563350
-1.72830832 1.84205949 0.79771519
-1.73664618 1.83047783 0.79762572
-0.82336390 0.62296832 -0.40647116
-0.82917464 0.63205689 -0.41026482
0.66313529 0.79511929 0.83571732
-1.28334057 2.11150408 -0.19904548
-1.08710456 1.98265088 -0.04360746
-1.07659173 1.98279560 -0.04724681
-1.61871755 0.44129664 0.21544659
-1.62557006 0.45421109 0.20942211
-1.63493454 0.47321627 0.20283276
-0.02318656 1.33024967 -0.34011656
-0.02213466 1.34926045 -0.32369012
-0.01191879 1.35952318 -0.31493992
0.01267091 1.38249564 -0.29358625
0.00949435 1.38717878 -0.28655443
0.02667514 1.39185631 -0.28574568
0.03441359 1.41470420 -0.26021627
0.05925180 1.42357969 -0.25885746
0.06015271 1.43148196 -0.24977480
-0.50729901 -0.09967821 -0.56184423
-0.49783155 -0.08781419 -0.55503774
-0.48992470 -0.07412855 -0.54741472
-0.47674078 -0.05960927 -0.54666537
-1.66665494 1.50679398 1.01541901
-1.66005754 1.53999710 1.02890778
-1.66888273 1.47859645 0.99973631
-1.68285644 1.45523298 0.98225558
-1.67498422 1.46147358 0.98520094
-0.03993187 1.62574947 0.20347518
-0.04826624 1.62539673 0.22143693
-0.02957473 1.62697339 0.23855466
-0.03201047 1.62684417 0.24295682
-0.08555424 0.34382185 -0.69805080
-0.06463294 0.35800028 -0.69520622
-0.03986195 0.39912251 -0.69748539
-0.04227940 1.00393379 0.96452385
-0.03926604 1.01628363 0.92170215
0.22076042 1.37817621 -0.29503363
0.03427278 -0.01917478 -0.59998071
0.03299702 -0.00309291 -0.60592711
-0.14610913 1.49419141 -0.18560895
-0.13013217 1.51339972 -0.16552128
-0.11864629 1.52780592 -0.14383657
-0.09842668 1.52948630 -0.14186956
-0.09016593 1.54688418 -0.10870165
-0.06742977 1.55369973 -0.09459273
-0.05882561 1.57214999 -0.05299800
-0.04867610 1.56660414 -0.06599770
-0.04294384 1.57884645 -0.03776221
-0.03593478 1.57561600 -0.04550911
-0.03115725 1.59118569 -0.00893576
-0.02037558 1.59240901 -0.00704129
-1.03451991 -0.18222269 -0.21718666
0.03920984 0.64367336 -0.70164061
0.03434528 0.65713304 -0.70418686
-1.23167849 2.13187242 -0.49052858
0.31904665 0.26748523 -0.58444935
0.31988043 0.28804579 -0.58816361
0.33372426 0.29037011 -0.58289856
0.33776703 0.30502772 -0.58335578
0.35056010 0.31713501 -0.57891333
0.35312438 0.34102601 -0.58053052
0.38010490 0.35513893 -0.57549423
0.39265850 0.38494906 -0.57348704
0.39263973 0.39253491 -0.57301402
-1.51082647 1.66490126 -0.14229703
-1.50569260 1.68854606 -0.13945061
-0.24723025 2.29848886 -0.27731737
-0.25825521 2.32383156 -0.28634685
-1.53443050 0.83095253 -0.26157102
-1.52612281 0.84101766 -0.27038819
-0.64247984 0.41538352 0.80754447
-0.64944428 0.40520531 0.80909526
-0.62126267 0.44602320 0.80459160
-0.62924117 0.41633061 0.80185491
-0.55065995 0.98691440 0.87052464
-0.55325896 0.96092391 0.87097281
-0.54808074 0.95158750 0.87188786
-0.53571475 0.94652748 0.87368578
0.73917329 -0.06524520 0.62329334
-0.45855397 0.48069987 1.02540553
-0.44078094 0.45785218 1.03230989
-1.07169235 1.38066363 0.71244407
-1.05591595 1.38708460 0.69945180
-1.02875805 1.43626451 0.68862063
-1.02650905 1.45269978 0.68712276
-1.34887779 0.65464813 0.85511100
-1.34563434 0.63468522 0.84885734
0.56529379 0.73043561 -0.43166599
0.18674575 -0.24440527 0.60440052
0.16320848 -0.22709800 0.60542613
0.14870553 -0.21880352 0.62460285
0.61711472 0.97562826 -0.31078440
0.62360978 0.98879719 -0.30358595
0.64323103 1.00481832 -0.28741583
0.66230106 1.03998625 -0.26361737
0.68095821 1.04562163 -0.24650064
0.68990988 1.06218874 -0.22983977
0.71708602 1.06322229 -0.19635272
-0.30052599 1.47107792 -0.13043602
-0.31368616 1.45977736 -0.14027904
-1.79216421 1.95773888 0.53710097
-0.25079647 2.34666038 -0.31064922
-0.24934071 2.33313346 -0.30025986
-0.05255035 -0.24040283 0.33472338
-0.05337358 -0.23766859 0.35187665
-0.01997974 -0.27424097 0.32757792
-0.00992896 -0.28737199 0.31831932
-0.00080041 -0.29539874 0.31513765
0.00689601 -0.30105034 0.31399366
0.03765458 -0.31359944 0.27918530
-1.83131969 1.47192848 0.86843985
0.23801883 0.33354402 -0.61258173
-1.01705134 1.04559982 0.83087194
-1.01835418 1.02097583 0.84593159
-0.61552250 2.16563582 -0.24385117
-0.97523028 1.75496185 0.17377543
-0.98206306 1.80218065 0.20252547
-0.98554784 1.82004452 0.20356108
-0.92605960 1.66217196 0.25519028
-0.92812574 1.66332483 0.23344757
-0.92913318 1.66321301 0.21783549
-1.38891506 2.62540889 -1.13476479
-1.40418017 2.62668610 -1.12319112
-0.23027277 2.50624442 -0.44568217
-0.23259331 2.51504517 -0.44895953
-0.23764457 2.52811289 -0.45126241
-0.04902711 1.01551080 0.92342889
-0.04202593 1.01839614 0.91050893
-1.36579204 0.82215726 -0.33533642
-1.37503397 0.81100774 -0.33362368
-0.52500278 0.86195844 0.90910828
-0.52036417 0.87333757 0.90232658
-1.65453994 1.12016666 -0.03542347
-1.64820778 1.15763330 -0.01703993
-1.65032518 1.14787853 -0.01665718
-1.14939702 -0.22372185 -0.19211635
-1.14564967 -0.23792101 -0.19901669
-0.17758712 0.99631393 0.96991712
-0.56631482 0.43885776 -0.67557549
0.06387372 -0.16601227 0.91999459
0.06483901 -0.18086222 0.92092317
0.17027077 0.26045161 -0.62863535
0.18330048 0.28796035 -0.63311434
-1.40171683 0.77750081 0.84182155
-1.41992831 0.79300505 0.83587378
-0.89105707 2.03172398 0.15387493
0.21979956 0.96084446 0.97331405
-0.29600388 0.87896168 1.09101355
-0.30302712 0.86887789 1.09787261
-0.74456358 1.55899060 0.10464386
-0.75393957 1.56285989 0.12388385
-0.71862960 1.54981840 0.09051856
-0.72712767 1.55454266 0.10193411
-0.71122003 1.54648066 0.08425260
-0.66371101 1.52122700 0.04063146
-0.67767674 1.53219175 0.06608821
-0.65003276 1.51350939 0.03647857
-0.66325659 1.52390373 0.05646273
-0.64067370 1.50751686 0.02884660
0.45573539 1.45905459 -0.02137897
-0.24560213 -0.09076016 0.98320866
-0.23746140 -0.11837419 0.99676180
-1.23436344 2.10501552 -0.40571260
-1.23422813 2.10660720 -0.40725470
-1.24401188 1.75092399 0.71783936
-1.24012339 1.72991264 0.72351778
-0.88911062 0.17880499 0.78568268
-0.90415049 0.17343308 0.77586985
-1.78980792 0.92949778 0.32555848
0.44316766 0.63368380 -0.52243090
0.44197908 0.60278249 -0.52521724
-1.17321670 1.08549249 0.82887828
-1.17787170 1.09465742 0.82273334
-1.71918488 0.71264791 0.00607225
-1.71520257 0.73845500 -0.00993458
-1.71511233 0.74469209 -0.01138979
-1.70234120 0.76748431 -0.04403950
-1.70285308 0.77432477 -0.04440302
-1.70006979 0.77618808 -0.05135164
-1.70162153 0.80665147 -0.05962951
-1.69343495 0.81950372 -0.08314463
-1.68840766 0.84609437 -0.08912316
-0.36852801 2.69983101 -0.33839539
-0.36388394 2.69098234 -0.34567410
1.18178570 0.26729685 0.09563840
1.18303800 0.28873125 0.10770340
1.18032038 0.30275336 0.10818549
1.18227470 0.33848658 0.13208342
1.18763483 0.35799310 0.16019592
1.18752980 0.37178761 0.17439757
-0.80108964 1.53290188 -0.07708246
-0.81850040 1.53251338 -0.08992273
0.83245629 0.94139391 0.51815099
0.83414590 0.91863436 0.53116459
-0.25904700 0.63819790 1.14931226
-0.25394905 0.61685026 1.14982498
-0.23869251 0.61339742 1.15426230
-0.23744754 0.59605545 1.15322411
-0.22576669 0.58375621 1.15534937
-0.21732940 0.57247901 1.15615678
-0.20329215 0.56292468 1.15630734
-0.17392860 0.50488347 1.14815116
-1.49043834 1.08621609 0.73629522
-1.45250106 1.12450707 0.74804527
-1.46079826 1.10014737 0.74724811
-0.92929322 1.54380429 0.50729412
-0.92062509 1.53244305 0.49226201
-0.82348299 0.01280871 0.78820592
0.42171395 0.57735687 -0.53669262
0.40957779 0.54840124 -0.54025203
0.39613622 0.52890790 -0.54718143
0.39115101 0.52360767 -0.55034280
0.85977191 0.72745609 0.55208921
0.84621024 0.75697094 0.56503212
0.83597982 0.78493208 0.57478970
0.81322843 0.82574326 0.60839236
0.80477005 0.84163576 0.61919045
0.79600900 0.85916424 0.63045490
0.78492224 0.88789052 0.64329416
0.78212184 0.89435434 0.64492059
0.74499130 0.95106441 0.66204512
0.72618520 0.98573446 0.66876769
0.70579505 1.00800931 0.68461674
0.69592845 1.02402604 0.68674040
0.67652845 1.04962015 0.69152510
0.67210746 1.05065727 0.69564283
0.65364897 1.07479894 0.69901586
0.63282937 1.09775662 0.70533729
0.62050229 1.12084031 0.70550209
0.60433143 1.14101624 0.71198809
0.60073537 1.15445244 0.70912296
0.58337271 1.16813040 0.71854120
0.57880026 1.18197107 0.71343917
0.56042844 1.19443524 0.71939909
-0.90156525 0.72094768 0.87979007
-0.89241481 0.73927873 0.87502617
-0.91581696 0.70262688 0.88558292
-1.33962333 0.76867259 -0.35709235
-1.32693946 0.78300893 -0.36131358
-0.93468380 0.12124527 -0.21765043
-0.94763321 0.14102896 -0.22187656
0.48135319 -0.30172777 0.24628830
0.49355355 -0.30668986 0.24019204
-1.08652341 2.06907201 0.37750465
-1.08358276 2.06032920 0.41253608
-1.31457412 0.37329134 0.68466294
-0.85182023 2.01746035 0.11774470
-0.85540253 2.00327373 0.11456602
-0.83413678 2.03790689 0.11144926
-0.81791490 2.11541915 0.12379403
-0.81432819 2.08372974 0.11489519
-0.81166387 2.07078123 0.10718866
-1.78767049 1.74183118 0.24125919
-1.79889166 1.71346724 0.23230059
0.08092471 0.53829819 1.12443507
-0.29304698 0.72538674 -0.77358294
-1.06901526 1.09072208 -0.39013815
0.81697804 1.10998416 0.14752369
-1.25758994 2.06331468 -0.64682597
-1.26988149 2.04558420 -0.65559214
-1.40775192 1.37554848 1.06178367
-1.42041409 1.34118545 1.05169237
-1.42166495 1.35979307 1.05995584
-0.11079408 0.18270734 -0.68601203
-0.08493303 0.23418088 -0.69866556
-1.08288050 1.88011432 0.54683882
-1.08313704 1.93246341 0.51376814
-1.08090353 1.90650666 0.52005261
-0.20095295 0.06885368 1.03962564
-0.21888192 0.07939187 1.03755033
-0.22908820 0.09674801 1.03980112
-0.24948126 0.09668033 1.02937245
-0.24604882 0.09987921 1.03185153
-0.53672808 1.16824162 -0.41423395
-1.28880692 -0.15157044 -0.09356917
-1.27987063 -0.16592115 -0.11438078
-1.35845399 1.61401534 0.95709342
-0.54474944 2.51207876 -0.36253670
-0.57231206 2.49675035 -0.34796518
-1.34352040 0.89005697 -0.34127063
-1.35522497 0.92715561 -0.32941988
-1.33863175 0.94396704 -0.33173168
-1.53653729 1.34538686 1.03384471
-1.54444313 1.37220168 1.03601420
0.01015656 1.27179265 0.83401972
-0.00350509 1.27592039 0.83345449
-0.01242471 1.28769958 0.82846206
-0.02490286 1.31270194 0.81571448
-1.78994036 1.39480054 0.06514782
-1.78747499 1.40546393 0.06010471
-1.18885028 0.76117879 0.90005779
-1.55116105 1.52046978 1.05742812
-1.54614341 1.50558937 1.05338621
-1.54311204 1.49122357 1.04940629
-0.96497607 1.67492485 0.46047077
-1.70727789 0.62950397 0.41356599
-1.24586666 2.05283022 -0.29061159
-0.76302373 1.01237118 0.82842058
-0.75338370 1.03399038 0.82085270
0.38234690 0.53486341 1.04210007
0.37494749 0.55479723 1.04782605
0.37327918 0.57149792 1.04881239
-0.86150748 2.16229749 0.09924171
