36.44065094 -27.31906319 25.02619743
21.78800583 -28.63374138 25.40657616
15.09486485 -27.08654022 25.70471382
20.97918892 -28.56797791 25.12880325
27.10330009 -28.04872513 25.19679260
25.18408012 -28.35292625 25.12461662
33.24295807 -27.54801750 24.73402023
28.85985947 -27.86116409 24.60247040
26.56461525 -28.12309456 24.87951279
39.84216309 -27.02293015 23.91399193
28.12608337 -27.99887276 24.42028046
44.65675354 -24.78417397 24.06326294
36.69038773 -27.31636047 24.10691071
14.84888840 -26.99480820 25.33018494
24.83594513 -28.42858315 24.03288460
18.49915314 -28.25643349 24.85327911
17.24964523 -28.07445717 25.05567932
40.11826324 -26.75635719 23.35357666
36.80247116 -27.26637840 23.34220314
25.88186646 -28.26934052 24.45767212
36.27582550 -27.25492859 23.62541389
26.37325478 -28.22423172 23.97147751
27.86417770 -28.00331879 23.94701958
25.54597664 -28.31507683 24.18406677
44.91882324 -24.38127708 23.28906631
40.20907211 -26.59433365 22.95474243
22.90425491 -28.49434471 23.76376534
38.04804611 -27.32468605 23.38323593
34.64680481 -27.36578751 22.85868645
31.96819878 -27.65956116 23.45318222
31.62278175 -27.75689316 22.87916374
28.68317795 -27.93928146 23.53983307
19.71342659 -28.29919243 23.66952324
29.91007042 -27.84933853 23.12801552
22.19984055 -28.48640633 23.35553551
38.89437103 -26.74114799 22.12149048
39.94271088 -26.69135475 22.63641930
16.09908676 -28.18897820 23.71243858
22.89333344 -28.44875336 23.28112984
25.38288498 -28.35007095 22.94220352
44.35622787 -24.33588219 22.14660263
36.32363892 -27.17531395 22.07722282
40.96759796 -26.05798721 22.02145767
27.13346481 -28.11407089 22.26578140
41.71701050 -25.75920486 22.08009911
38.06587982 -27.03281212 22.36133575
32.40758514 -28.75736237 21.97769165
44.61589432 -24.10751915 21.85122299
34.03723526 -27.09473228 21.81857872
42.99472046 -24.86949539 21.54473495
37.88411331 -26.81042290 21.72999382
34.88095474 -27.34131622 21.97439384
45.96923828 -23.23223305 21.70330620
37.71674728 -26.56509590 21.02733803
37.14062881 -26.83032799 21.30320930
40.17464447 -26.01358795 20.85332680
36.44330597 -26.96142769 21.17041016
36.75686646 -26.89288902 21.20926285
25.62141991 -28.16773033 21.57363129
38.42039108 -26.37985039 21.09175110
34.30844116 -27.63201332 21.29532051
22.24519920 -28.20165253 21.69173431
35.58485794 -27.10868835 21.08139801
18.56672478 -27.83796501 21.51525116
42.14294434 -24.93111038 20.69573784
41.08665085 -25.14010620 19.96904564
19.10327721 -27.83170319 21.33195496
16.74222374 -27.76345253 21.84667969
38.65272903 -26.17393303 20.66441917
24.01609421 -28.16175842 21.21496201
19.74282074 -27.89269829 21.38413239
28.74258804 -29.01424217 20.50101662
17.45632553 -27.69504547 21.45808029
39.96914291 -25.91780853 20.40246010
32.76963043 -28.07287979 20.11725235
26.95995712 -29.40736389 20.58882141
39.22296524 -26.38320923 20.34705925
29.82971001 -28.81088257 20.41009712
26.93804359 -29.35753441 20.53608704
22.19836235 -28.22315788 20.83622360
20.21879959 -28.12789726 20.88618851
40.50359726 -25.61524200 20.28817749
18.59407234 -27.94296837 21.12917328
23.41226959 -28.24293709 20.90942001
19.81624222 -28.06218910 20.77509117
37.39053345 -26.20851135 19.81431007
32.72825241 -27.91903877 19.68816757
31.90189934 -28.21566772 19.95344734
29.79548836 -28.49137497 19.59425545
19.36359596 -27.88487434 20.17635155
34.20531845 -27.28092766 19.16384125
22.96861458 -28.00618553 19.82423782
14.46338367 -26.13394356 20.73110008
34.58856201 -27.24973488 19.40611076
17.80131531 -27.71142006 20.13119888
26.04862595 -28.38284302 19.36824417
36.30501175 -26.61812782 19.23776817
29.06226921 -28.68663597 19.81338501
23.29463959 -28.02671432 19.78290558
30.50738525 -28.15184784 19.01546860
31.28676796 -27.75721550 18.41435432
14.86642742 -26.29253578 19.69184113
22.99400520 -27.90254593 19.42570686
23.57900620 -27.79055977 18.93299103
25.72425652 -28.65362358 18.88275146
16.05515862 -27.02250862 19.25820732
31.78245163 -27.63891220 18.37682533
19.93229294 -27.51547623 18.76375961
21.67310905 -27.66923523 18.87227249
14.92339993 -26.70677567 19.02971268
25.81636620 -28.45379257 18.27998543
16.50005531 -26.84618759 18.61300468
15.18460274 -26.69026184 18.72561264
20.58608055 -27.45088387 18.46477890
15.39176083 -26.57495117 18.38916779
23.62518692 -27.37644768 17.72059250
20.70758057 -27.22866058 17.84333611
20.04814911 -27.40225601 18.36420250
23.48827171 -27.33030319 17.63854027
17.11227798 -26.31769562 17.89384079
18.63279152 -27.09711075 17.64549446
25.35980225 -27.87225342 16.98354721
17.35653687 -26.40596199 17.71204948
20.77041245 -26.95254517 17.07769775
18.12095451 -26.95234680 17.38739014
21.70684433 -27.02547646 17.16457558
22.39097214 -26.89260864 16.82823563
17.90838814 -26.56513786 16.97750092
18.50139999 -26.67743111 16.90677261
18.52182961 -26.49083900 16.69919586
15.45148087 -25.93061638 16.47856140
17.08259392 -25.76338768 16.64942741
16.33453751 -26.10487366 16.43970490
40.28382874 -11.15114307 42.50796890
62.43856812 -38.72871017 66.44746399
34.27653503 -38.41750717 61.74661255
58.86656189 -38.94653702 73.71355438
55.74319458 -39.50431061 72.19660950
53.66130066 -39.34117126 72.38880920
54.09379196 -39.27358246 72.15151978
52.33182907 -39.22063828 71.02464294
52.55350494 -39.16294861 70.42115021
51.26822662 -39.33514786 69.27673340
65.74117279 -37.29286194 67.02523041
64.15359497 -38.10607147 66.73510742
53.48107910 -38.00219727 60.37405777
50.96179962 -37.78192520 59.90653992
53.31521606 -37.96461487 59.18914795
51.62294388 -37.72342300 58.76387024
56.18487167 -36.22053909 56.11025238
55.60943604 -36.86198425 55.36567688
57.89163971 -37.01353836 55.03071213
60.02643585 -36.72185135 54.97572708
56.97278214 -37.07742691 54.53023148
61.67982101 -36.17374039 54.01768875
54.68481827 -36.73975754 54.04627991
54.21438217 -36.73659134 54.08000565
32.61148834 -36.76787567 54.46250534
31.20777130 -36.02016068 54.56282043
28.77126312 -34.52468872 54.76148224
58.08659744 -36.25497437 52.46473694
64.15884399 -35.29208374 52.14282608
28.58830070 -33.62858582 53.27477264
27.74669075 -33.12216568 53.45115662
23.00213432 -27.62009621 52.30474091
25.62431526 -30.32894325 52.07788849
23.39894295 -27.43067551 51.53473282
23.42117691 -26.53797722 50.76756287
28.90163231 -28.40918732 50.13456726
27.83899498 -28.84109306 50.06361771
24.09296227 -27.29442787 50.42541122
34.73466492 -25.81679153 49.69845200
25.10696983 -27.70145798 49.63278961
34.65417862 -25.40199089 49.05392838
23.90702820 -25.42831230 49.25006104
34.91668701 -25.34993935 48.54224014
24.62788010 -26.69112778 49.21524811
21.96174431 -21.91182709 49.90758896
34.26095963 -24.65725517 48.47347641
24.81062889 -26.17303658 48.62953186
25.77246284 -27.47864723 48.76815414
22.08101082 -21.94229698 49.06131363
25.38285637 -26.92391205 48.63134384
25.74579430 -27.06676483 48.42124939
24.98695183 -26.23847198 48.48384476
25.64575958 -26.93884087 48.41005325
21.52915764 -21.90682220 48.84346771
23.80655098 -23.94935608 48.45392609
24.63855743 -24.09231186 47.33934021
25.17658997 -24.17392731 46.53944397
25.49015617 -25.07357597 46.91603851
26.24042320 -25.19717407 45.98725891
24.95120621 -23.57168770 46.40308762
24.33376503 -21.73509407 45.89182663
22.94040298 -20.32869720 45.63796234
23.79618835 -19.62397957 45.36213684
36.88402939 -21.35043907 44.17107773
27.90125847 -24.94334984 43.56917191
41.43919373 -19.15544319 38.78971100
26.41850471 -23.83615494 43.16360092
37.33909225 -20.79632187 42.55939865
27.39967155 -24.39492798 42.69161987
27.90681458 -24.67997932 42.76206589
36.67959976 -21.07505417 41.60597610
38.00690460 -21.47146034 41.43656540
39.49618149 -21.56078339 40.93510437
34.30633545 -22.18382645 40.89573669
29.03541946 -24.61936378 40.88914108
34.89750290 -22.01093292 40.46936798
39.04881287 -21.00442314 40.23720551
28.63059425 -24.58076859 40.25462723
34.81590271 -22.66882896 39.62013245
29.51061440 -24.33730507 39.64435577
35.46115875 -22.59720421 39.25469971
35.41654587 -22.36507797 39.70381546
29.02323723 -24.47444725 39.63937378
32.81866455 -24.06992149 39.00337219
33.15716934 -24.20669365 38.69651794
30.26224136 -25.18844986 38.70749664
22.06893921 -22.27862930 39.72113800
33.62107849 -24.34209824 38.36253738
31.43548203 -24.97639465 38.38201141
28.37257576 -24.77107620 38.54833984
29.42185974 -26.16402626 37.23256683
28.12714195 -25.18041801 37.07986832
39.56484222 1.90668416 30.96778107
39.59943008 2.29927158 30.47910881
38.84610367 2.85766959 29.21916199
39.94541168 4.02926302 28.35459328
36.87458420 4.88165283 30.68152046
37.91358566 6.21722651 30.80134773
39.10367584 6.46179247 30.72097588
37.64876175 7.03513718 30.67599106
38.90432739 7.21884346 30.82632256
39.33239365 7.84514618 30.82213402
39.03569031 8.11111069 30.75953102
40.58264542 8.56823730 30.81408310
22.81255341 -40.01794052 59.44013596
24.53621864 -39.46858215 60.46913528
23.82321167 -39.54185104 60.16183090
22.67209625 -40.20852280 59.14170456
23.00418854 -39.33207703 59.55327988
20.65031242 -39.12581253 57.78277969
26.11696434 -38.51462936 60.65093231
54.81946182 -38.89950562 74.41007233
21.82542419 -38.76396942 58.10832596
20.33964729 -38.70256805 57.26780319
58.97217560 -38.99455261 75.19561005
34.53638077 -38.33496857 61.88804626
26.96661186 -38.35103989 60.63975143
24.29000282 -38.05149841 59.87437057
60.36143112 -38.45123291 76.20525360
23.73236847 -38.17800522 59.32414627
24.87468338 -38.29288864 60.44208908
30.24007225 -38.42812729 60.87660217
57.02465057 -38.44432068 74.77695465
34.33114243 -38.95960617 61.42280960
58.00569534 -38.18214798 75.05329132
23.26889038 -37.87478256 58.44039536
23.44867897 -38.12639618 58.93096542
25.94153976 -38.06314087 60.63893509
41.19088745 -38.00778580 65.17034912
55.19920349 -38.26353455 74.43238831
29.93117142 -37.93127060 60.93742752
31.38282204 -38.11402130 61.09152222
56.34298325 -37.97169113 74.79505920
24.30726242 -37.61847687 59.17400742
31.50003815 -37.81228256 61.18892670
56.77473831 -37.66054153 74.72930908
22.64007950 -37.54615402 57.63595963
40.21413803 -37.91933441 64.86092377
30.87161064 -37.47502518 61.12612152
40.33258438 -37.66714478 64.98865509
40.47282410 -37.93165588 64.96888733
59.27173996 -37.72674561 75.61803436
29.56454659 -37.20259476 60.92975998
32.15003204 -37.61639023 61.36016464
59.58131027 -37.47652054 75.78701019
37.10912704 -37.60469437 63.32495117
24.20979691 -37.11545181 58.29901505
24.52401733 -37.12333298 58.68811798
28.83132935 -37.24319077 60.82127762
58.65143967 -37.36902618 75.29065704
22.71329498 -37.02153778 57.31949997
27.87659073 -36.93101120 60.81995392
39.34426498 -36.78755569 64.60153961
41.91130829 -37.16332245 65.60112000
51.56604767 -36.98492813 71.31209564
33.22404480 -36.94318771 61.82296753
40.55145264 -36.99204254 65.21726990
47.18320465 -37.04202271 68.10062408
48.67377853 -36.97531509 68.91859436
29.81510162 -36.36944962 61.08277130
33.28009033 -36.42469025 62.00533295
23.40720558 -36.40238190 57.15540695
50.59255600 -36.73596191 70.15291595
39.54008102 -36.48748779 64.79201508
46.95970917 -36.88174438 67.99264526
23.41138840 -36.22428131 56.83419800
29.82749367 -36.07810974 61.12839508
38.67871857 -36.02864838 64.40830231
50.66619492 -35.96820068 70.04856873
47.47824478 -35.76837540 68.35121155
38.64316559 -35.88318634 64.40850067
40.88475800 -36.07283401 65.52970123
37.97627258 -35.82159042 64.04175568
30.04214668 -35.06949615 61.29694748
28.38741875 -35.30150223 60.94950867
34.23061371 -35.33388901 62.47425842
31.77462006 -34.74345398 61.84970856
29.10161018 -35.00152969 61.15663147
39.31967926 -35.17913437 64.54600525
38.99430466 -34.91226578 64.35796356
43.64343262 -34.97689819 66.34204102
43.71651077 -34.68877029 66.23018646
50.61910248 -34.61852264 69.45480347
31.58543587 -34.62171173 61.85028839
36.73580551 -34.45945358 63.39667892
37.18982697 -34.68657303 63.66276932
35.39993668 -34.49089432 62.92970657
33.35850143 -34.40270233 62.26705933
32.27336121 -33.74874496 62.06236649
33.88559341 -34.01355362 62.38571548
27.73176193 -33.26253128 60.59113312
28.12530136 -33.00996017 61.02040482
34.58751678 -33.00481796 62.46587372
33.42455673 -33.33659363 62.26380157
33.89023972 -33.22006226 62.36559296
31.01483727 -32.34856796 61.90980530
34.83178329 -32.23896408 62.36354446
25.27483368 -31.56729126 60.84498596
27.05108070 -31.76652336 61.32727432
25.95206833 -31.63494301 61.09997177
34.88484955 -31.91781998 62.32875443
27.96688652 -31.54651642 61.62449646
32.16564560 -31.89438820 62.08277893
29.46360397 -31.37404633 61.88984680
28.87500000 -31.59953117 61.76496506
24.86636353 -30.95614052 61.08691025
32.28810120 -31.10382462 62.17836761
34.40262985 -31.19667625 62.19313431
25.18196869 -30.65388298 61.35366058
28.22714996 -31.17023659 61.81396484
26.35246468 -30.37539101 61.75234985
23.61756325 -30.35968208 60.89868164
29.16089821 -31.17607689 61.90764236
31.02565002 -30.65368080 62.17889404
29.00125313 -30.98218536 61.95111084
29.44699478 -30.41894913 62.14114380
25.56531334 -30.37305260 61.57872772
32.64710999 -30.74748230 62.20978165
33.04170990 -30.40562439 62.14721680
24.90617943 -29.73980331 61.66592407
25.55333138 -29.64544678 61.83036041
30.26549721 -30.12875748 62.23448944
23.19899368 -29.21032715 61.46082687
29.39468765 -29.91448212 62.25061035
30.65080070 -29.39905739 62.34412766
30.32679176 -29.20124054 62.37137222
24.22536469 -29.26136208 61.65624237
23.57967949 -28.80915070 61.67170715
27.82933807 -28.82822609 62.35301971
21.66208267 -28.08145905 61.32605362
22.82752991 -28.06138611 61.76032257
28.43320084 -28.33382797 62.47814178
32.07658768 -28.93529129 62.22868347
31.72011185 -28.44439507 62.24777603
27.48899460 -27.76633263 62.45258713
31.50167656 -27.52343369 62.16453552
26.67753601 -26.85969734 62.42336655
27.93686295 -27.43435669 62.50047302
24.73577690 -27.52891922 62.14142227
26.54719925 -27.26390076 62.38817978
29.81561279 -26.94570160 62.45061111
24.19656754 -26.48928452 62.16079712
23.48090363 -26.81038094 62.04702377
22.04919243 -26.88248825 61.93630600
26.41755867 -26.54834175 62.40980148
25.01733208 -26.76122284 62.24370956
21.38608742 -25.82009888 61.66944504
26.86068916 -26.10107994 62.45923233
21.08571243 -26.03037834 61.44187927
23.89852142 -26.22981453 62.16526413
25.93173599 -25.57978630 62.35643387
20.96395302 -25.42042732 61.23025513
27.26515198 -25.58438301 62.43379974
23.86857414 -24.94640350 62.18350983
22.71470070 -24.78658867 62.04845047
30.51866722 -25.26980019 62.06556320
22.75023651 -24.41261292 62.02129364
25.31866837 -24.24265480 62.17680740
29.34637451 -24.79430199 62.15976715
27.79625893 -24.28937340 62.23126602
26.26811981 -24.29128456 62.22866440
27.66943932 -24.19637680 62.22157288
18.41574478 -26.78262711 31.06185913
24.47679138 -22.47862434 61.59090042
22.94644737 -22.23756027 60.78702545
23.32250595 -21.96439934 60.67152405
25.53017616 -22.07682800 61.32069016
25.11784363 -21.67427635 60.89969254
25.68711090 -21.91235733 61.15485001
23.53063393 -21.60255623 60.31958771
25.73776245 -21.75960732 60.97897339
24.44194221 -20.96163559 59.69814682
25.43569183 -20.85213089 59.71031952
21.58347130 -20.91480446 53.40911102
24.33896637 -19.55263519 55.82955551
24.35210609 -19.52759743 55.74933624
17.49865532 -21.09732628 38.83029175
22.12576675 -19.38357544 54.24251175
23.08421898 -19.47956848 54.72657013
22.97790527 -18.85892296 54.92502213
22.88904572 -18.76420212 54.85298157
32.29616547 -19.65007782 55.18719864
19.67184639 -20.27130890 40.81980896
24.64325905 -18.31071281 55.52143478
18.59880447 -20.07756042 39.81158447
17.77040100 -19.71695900 39.07154846
21.26179314 -19.75281906 41.29016495
16.75244904 -20.12577820 38.51620865
29.28287888 -18.43225479 53.74606705
18.56807518 -19.69821739 39.29434586
24.20799637 -17.38360023 55.29398727
19.70873070 -19.29983902 39.74312592
19.23438072 -19.19811058 39.66831970
19.99429893 -19.07786942 39.84659195
21.46827126 -18.36231804 40.22142410
20.19650841 -18.47233391 40.13125992
21.36395264 -18.62287140 40.17872238
19.05021858 -17.93468094 40.12158585
26.03268814 -15.50796223 58.67904282
20.68962097 -17.92212296 40.45074463
17.80927277 -16.71704674 40.50505829
25.31135178 -15.10096073 58.97552490
26.53200340 -15.12496662 59.08056641
19.52910233 -16.92571259 40.77188110
21.58439636 -17.10734940 40.51143646
26.02896500 -14.84827614 59.35374832
19.87617683 -16.37108040 41.08714294
25.48780823 -14.66585255 59.48529053
24.47274590 -12.70936680 60.97236633
24.88444519 -12.94355202 60.78362274
23.49763680 -12.56282806 61.02905273
24.72759438 -12.01449203 61.17069626
21.25493240 -14.36233902 43.43132019
23.41038132 -11.94670105 61.12037277
23.47354317 -11.57733154 61.03737640
20.57916069 -13.50497246 42.98818970
21.00991631 -13.62951946 43.27350235
21.15869331 -13.45266724 43.35105133
20.76181030 -12.65700531 42.82214355
20.60481644 -12.23720646 42.34968567
20.94786072 -12.02060890 42.16689301
21.16591835 -11.71953869 41.69812012
41.75489807 -7.20945311 38.56845093
41.30656052 -7.34190273 38.68779373
40.93130875 -7.25628948 38.58820724
42.02120972 -7.22302771 38.70986176
43.74012375 -6.51334763 39.80798721
40.53531265 -6.59423399 38.22108078
40.15840530 -6.29383183 38.11101532
40.33917999 -5.58094215 38.56206894
37.17694092 -1.66458297 35.46293259
30.16071510 1.71693122 25.52722549
33.70739746 3.02579188 30.59514046
34.47636795 3.64789915 30.68108559
30.16336060 3.08780766 25.11772919
30.84975815 0.47490698 26.20177460
26.48327255 2.96400714 25.00009918
21.16037941 -26.11601448 54.26232529
22.27655983 -27.86789894 53.84879303
18.92307663 -21.06344032 40.14303589
19.50109100 -21.53091812 39.75637817
20.09761238 -21.91479683 39.20541000
19.85390854 -22.50807953 38.35220718
19.98391914 -22.21635246 38.74323654
20.49918175 -23.30406570 37.64759445
20.41923904 -23.55648804 37.27258682
16.71725273 -22.97745323 36.15462494
24.30307961 -25.46777916 35.41961288
20.00610924 -24.71639824 35.36043167
29.09493256 -26.80408669 35.06815720
23.97223663 -25.54616356 35.22529984
18.55047417 -24.41563034 35.09410095
19.66533279 -24.69196701 35.21933746
24.73160934 -25.95851135 34.73431015
19.13998604 -24.65138054 34.94328308
25.36996841 -26.09290695 34.59740067
18.69125366 -24.80854607 34.50052261
20.01573753 -25.15392685 34.57056427
19.29681587 -24.89674187 34.65450287
20.44884682 -25.60598183 33.96406937
22.22896576 -25.81598091 34.33592224
18.26356125 -24.91190147 33.85940933
18.42863083 -25.23162460 33.40363693
14.84173203 -24.59328651 33.32050323
16.43455315 -25.24975777 32.58546829
21.91013527 -26.72165108 32.62681961
17.17004967 -25.58904266 32.23472977
15.62189007 -25.14374161 32.61795044
15.12070465 -25.11468887 32.46718597
16.88710594 -25.67748642 31.99535561
18.09732437 -26.24963379 31.40766525
16.37790680 -26.37169647 30.22050285
15.17762947 -26.09438896 30.15463638
51.14483261 -38.92580032 69.99839020
50.96155930 -38.91204453 69.78624725
40.04754639 -39.23307037 63.63580322
21.09943581 -27.91625214 60.61597443
22.69342613 3.73055077 23.46087265
22.29876518 3.20662212 23.07559967
23.74238014 3.11134887 23.31977272
28.08551598 3.29004192 23.20517159
27.63197899 2.30362535 22.54125023
23.94896507 2.16340733 22.78376579
29.92171288 3.18528342 21.86898422
24.48879433 2.04296684 22.70067978
26.79770279 1.53381431 22.25984955
26.28873062 1.31446016 22.13022804
25.36387444 1.21550310 22.21530342
28.23186684 1.78807580 21.92626572
25.03611755 0.58211929 22.04581261
25.95613098 0.49509829 21.84790802
26.70378494 0.43856415 21.62310219
27.78840256 0.75832975 21.54888916
21.25203896 0.59746164 21.82465935
23.57533073 -0.00525074 20.53402328
25.83141518 -0.24596228 20.55367279
22.36271286 0.03954819 20.32895470
25.42460251 -0.63044125 20.22901726
24.38007164 -0.70077771 20.14342117
25.33007240 -0.92833221 19.84282303
22.69021034 -1.32061613 19.01242256
25.78412628 -1.57932806 18.95925522
23.81283760 -1.50085652 19.05387115
24.24503708 -1.61785972 18.95260048
23.50911713 -1.93249190 18.33846474
31.56990433 -25.39202881 14.79245567
31.30290794 -21.25162315 10.16915321
56.35143280 -13.98749733 16.79942322
46.74360275 -11.38212490 8.00315380
46.46446609 -11.17021179 8.05390167
14.26250362 -24.23723793 14.45179653
15.97109795 -23.23040962 12.80512810
14.66628170 -22.75723648 14.48887062
14.76016331 -22.21368980 13.78744984
15.06949615 -22.31654358 13.67220116
39.03346252 -24.28293037 16.03953362
40.00436020 -24.25568771 16.10955429
32.18026352 -21.20706367 10.57372761
32.46713638 -19.97601128 9.60122490
30.55574226 -18.65031815 4.52723503
32.02109528 -18.12013817 8.05397606
34.67393875 -17.66597366 9.01153946
33.31151199 -17.51373672 8.95627213
34.70433807 -17.46831512 9.01285648
33.73820496 -16.91426277 9.13326931
33.40706635 -16.61790657 8.89106464
33.22314835 -16.61133003 8.78368378
38.84540558 -15.67309761 9.22131252
29.48497391 -13.06810284 6.50605106
37.37311554 -14.85289764 9.56258965
30.31838608 -12.85773563 6.64358139
30.72923851 -12.82054806 6.79840803
30.64116669 -12.65628242 6.69082117
30.41315651 -12.53378010 6.59035540
45.25215530 -16.27893639 11.54624081
38.12258911 -14.40681076 9.16132450
40.44558716 -14.68034935 9.37131310
39.81608963 -14.01442242 9.20011902
24.63312149 -9.41284752 6.78330612
42.55613327 -13.60637951 9.36815739
42.37440872 -13.00317764 9.29473591
39.64437103 -12.02392960 8.96145248
43.57479095 -12.29362297 8.64019299
39.91648865 -11.20715904 8.88377285
42.97353363 -11.47120667 8.98650837
38.22649765 -10.77238083 8.99505711
44.40850449 -11.26321030 8.22233486
38.04160690 -10.21081543 9.04586983
37.61790848 -10.11520100 9.10446358
47.44465637 -11.22939396 5.00852203
39.62132263 -9.55099392 7.84604502
24.02067184 -7.05370808 12.64142609
42.39427948 -9.04275990 7.61699963
40.97126389 -8.67965221 8.09252739
20.52950478 -6.17103624 13.66755867
21.86486626 -6.19661140 13.23174095
43.12611771 -9.30518341 7.31810808
23.01289940 -6.20607233 12.81471634
48.17775726 -9.78198433 5.31406164
48.21104050 -9.34935188 4.94608402
40.71632004 -8.49022293 8.23969364
21.42360497 -5.47830105 13.16544151
37.49767685 -8.24917698 8.95652962
46.75616455 -8.74011898 4.34365988
46.37048721 -8.84330654 4.42777586
43.66388702 -8.96631050 7.33612251
21.87969780 -5.27460194 13.00640011
52.66290665 -10.55620480 9.59047604
21.23694420 -5.20726204 13.26136017
42.11043167 -7.99422789 8.08820724
37.31928253 -7.65455246 9.27194309
52.16780853 -10.14561081 9.28156185
21.31576157 -4.75168943 13.39906788
45.77942657 -7.99943686 4.48532152
19.81375122 -4.62003994 14.55846500
42.14599609 -7.36521626 8.34409904
46.86503983 -7.17547798 4.33398914
53.05362320 -9.09878922 9.36983013
52.17391968 -9.03332710 9.67135048
44.68761063 -6.81177902 7.74872208
40.38504791 -6.04047918 9.37940502
47.12942123 -6.40699339 4.29259586
47.01216888 -6.29733658 4.29800081
31.30134010 -4.64004230 13.21781063
28.96466064 -4.52923059 13.37289143
24.04764938 -3.64595222 16.34821892
46.74019623 -5.94131374 4.27900171
45.07798386 -5.80387735 4.58613062
43.19767380 -5.57560301 8.57961750
30.43380165 -4.32481050 13.54953861
42.74702835 -5.65497398 8.67658806
29.34189796 -4.01798248 13.73636532
30.25616455 -3.73898721 13.82215786
45.87645340 -5.17196321 4.25071812
47.05865860 -4.96659756 4.16514444
30.41473579 -1.54575622 11.50731277
31.48712349 -1.44258320 11.55359745
29.82375526 -0.37505418 11.50929737
31.33732414 -0.38049355 11.21703911
44.64679718 40.84697342 39.58810043
43.11042786 41.29442978 38.92715836
44.47845459 35.04234314 36.75427246
45.83995819 34.51988983 37.36976242
44.28506088 33.32381439 36.01767731
45.19681168 33.20257568 35.94919968
46.48640060 31.74407578 35.18247604
39.28442764 46.90266418 6.54964161
39.55986023 46.44754028 6.31871176
47.47132111 38.84993744 7.95252466
39.11777496 41.94396210 4.63667345
46.57410812 38.52836227 7.55203056
47.06952667 38.27693558 6.59599257
45.29343414 36.90877151 7.34244061
46.54916000 37.63660431 6.02359581
42.45053864 34.62870789 4.91056824
42.84443283 34.38180542 5.27594614
42.69900131 33.92967987 4.77763033
45.14577484 31.83025360 5.79988289
43.69409180 32.17728043 4.71850872
55.50711060 12.85037994 4.31818628
33.07048416 -5.05381203 12.85430622
34.47877884 0.15322924 11.67001438
34.60265732 0.59619278 11.35293484
59.77620697 -3.62375379 9.50720406
35.02536011 0.68448180 11.51553249
37.93403625 0.86972320 14.26222515
40.06630707 0.52915394 12.48686504
35.03951645 1.76330245 10.81821728
41.22701263 0.75891715 12.05137825
37.97371674 1.17857683 14.40366268
36.23237610 2.73269749 10.76837444
41.38756561 1.26737046 12.08618832
61.63132095 -2.08455420 8.93482113
41.56583023 1.67466331 11.96031761
35.80422974 3.56222582 10.52411938
36.21208954 3.19875383 10.60036564
62.87751770 -1.10803807 9.29485035
41.59384155 2.83429480 12.74834251
42.67928696 2.17779064 11.42824936
40.57880402 2.67282057 13.67592239
37.99900055 3.12059546 11.34314442
37.47515869 3.68784451 10.71817207
63.19866180 -1.15633035 9.54572582
38.24790955 4.30852270 10.71454239
45.19107056 3.06199288 10.43895626
47.93717194 4.04034758 3.83942723
42.44224930 3.90448380 13.09461594
46.70640182 4.46918678 4.19304132
41.90884399 3.68572092 13.22346401
36.64028168 5.25587368 10.40657139
53.50704575 2.85966945 6.78080034
41.22991180 4.29177856 13.95352936
44.73391724 4.16113424 11.10724068
44.65516281 4.62076998 11.29421139
56.22315216 2.98212218 6.44536114
37.13190842 5.79908752 10.32953072
38.63181686 6.04412413 10.35744286
38.19065857 5.89463329 10.33087158
55.47624969 3.48770189 6.23351431
39.94739151 5.60357618 10.79453564
47.81145859 5.28581095 3.89736438
57.66513824 3.36174035 6.57830620
45.30258560 4.76556921 11.21756744
49.73149109 5.32852316 3.80916500
47.14653015 6.09243011 4.31179285
48.45550537 6.18479967 3.85218763
48.07749176 6.09339666 3.92251158
43.30168915 5.58477640 13.75596046
53.45413208 4.79987526 7.15685987
38.27399445 7.28138256 10.24513149
41.20923615 6.70923996 10.83328247
44.07437134 5.77650738 13.27534294
43.38606262 6.14666557 14.03290844
39.25324631 7.72175455 10.20032406
56.63103485 4.96853590 6.32906866
45.35288620 6.37977362 11.79104710
41.61729431 7.20621729 10.75928497
49.57482910 7.00090647 3.67513919
55.09281158 5.61033726 6.90422153
49.91270065 7.54623985 3.62062740
45.99338531 6.45404148 11.29830647
64.30156708 4.36140203 3.94462967
59.77081299 4.74311972 6.82276726
54.72350311 6.02301216 6.92735100
48.36996460 7.61989164 4.06216240
40.49288177 7.76305676 10.26265812
40.48692703 8.41998482 10.16046619
58.12074661 6.13341665 6.57317495
41.85231400 8.58552551 10.32511425
57.63233566 6.13118935 6.55873680
61.47349548 6.05498695 7.20753622
49.11309052 8.71033096 3.94587731
58.16678238 6.82920074 6.70090723
46.67189789 8.18873405 11.35037994
39.41444016 9.63387012 10.33766747
49.94235611 9.44402599 3.78306913
46.20938492 8.71996498 12.02336884
39.82300186 9.80622768 10.26432991
48.64049530 8.84903622 4.17723751
45.24810410 8.84740257 12.76561928
48.95670700 9.87611485 4.25480556
61.34489441 7.57882929 7.18489075
63.05208969 6.79093170 7.70752096
42.69406128 10.74389839 10.09131336
46.66195297 10.01152611 12.83062172
43.69964981 10.55822945 10.27201557
45.17058945 10.48159790 10.96111774
55.00658417 9.81928349 4.43352365
45.12925339 10.65203094 10.82761002
63.31135941 7.84643126 7.71333599
53.33161163 9.76532841 3.77551126
41.24166107 11.66097355 10.29520988
44.30101013 11.02318573 10.30641842
41.84190750 11.85735035 10.20495319
56.29965973 10.17026997 4.56277323
49.49127579 11.28188992 4.56409311
58.12221909 9.70791817 5.42762232
55.55764771 10.62022400 4.76021004
55.25441742 10.97656441 4.36859512
48.96417618 11.73558331 5.37320232
52.73709488 11.32544231 4.07349253
43.96601105 11.96093082 10.10030079
59.37585068 10.14035988 5.33095312
57.52518463 10.25646305 4.93564367
42.13036728 12.50623703 10.26389122
55.90073395 10.84137440 4.88255882
55.60332108 10.97068310 4.64364529
49.05273438 12.18703175 5.84351730
58.06690216 10.72203255 4.92486715
46.47698975 11.39375401 11.30597496
43.58563995 12.84313583 10.11779594
51.67086029 12.26659775 4.00595713
48.27017593 11.44036388 12.22796726
59.85411835 10.53522682 5.60370111
50.55688858 12.94260883 4.82325077
43.45166397 12.99581146 10.14727211
61.65363693 10.50098896 5.99871778
49.37574005 12.70751381 6.07139492
58.92153549 11.42931366 4.93191385
55.29816055 11.93928146 4.15706491
45.35364914 13.20766544 10.12887669
49.76295471 13.08184528 5.91717577
51.00815964 13.13747311 4.65059996
39.54783249 15.35602093 4.00651503
51.33647156 13.68134212 4.88710737
49.00674820 12.70438862 12.64152050
47.31373978 13.11779022 10.86866665
58.26796341 12.11392784 5.27969408
48.58964157 12.55099297 12.83129311
58.28872681 12.21993637 5.37679768
45.90416336 13.87137604 10.16688156
58.05468369 12.58473778 5.07196093
60.52561188 11.94933319 5.33556795
42.19669724 15.56255627 6.51308632
60.18072891 12.20698929 5.23366165
60.46605301 12.56509304 5.30399942
58.34010696 12.74704552 5.12468529
40.71053696 16.18001366 4.49707127
51.09972000 14.33139896 5.89507103
50.11507034 13.52880955 12.43183899
55.70320129 13.90956211 4.91817999
42.62307358 16.23316574 6.58483267
41.66696167 16.92408752 4.94097900
45.84343719 15.66381741 7.97655439
55.86188889 14.09224606 4.92548275
46.00934601 15.77083969 7.89791393
59.69466019 13.55124187 5.23710966
41.09321213 17.10124207 4.66971207
52.26258469 15.08989716 5.76550627
43.92029953 16.28907013 7.32257175
41.57676697 17.32246971 4.83752203
52.69813538 15.65998650 6.44640875
47.98503876 16.18901253 7.49415684
58.13132858 15.16253757 5.70793009
52.83685303 15.97241592 7.78232193
43.31944656 18.46448326 5.31438351
46.41709137 17.46506500 7.88034630
47.45217133 17.53933907 7.46082783
51.38214111 16.99790764 6.93212318
47.32715225 17.78186417 7.78613901
44.75368500 18.68869400 5.73356962
48.69259644 18.27088356 7.49730539
51.68713379 18.36947441 6.29641199
45.82667923 19.22742844 5.82465363
44.54582214 19.79366112 5.66221046
52.40336227 18.14615440 6.28338003
53.94755936 18.79838943 6.19860649
48.57955933 19.39573860 6.63718033
45.65417862 20.41295624 5.94334126
45.94026947 20.60141373 6.02272034
47.01680374 20.70042419 6.04640675
50.82419586 19.87223434 7.06415892
55.45082474 18.90934181 6.30974865
52.61840057 20.21737671 6.86748886
52.29148102 20.21821785 6.99629402
49.75173187 21.31553078 6.69993353
48.79555893 21.59171104 6.43656111
52.44038391 20.66054344 6.93716240
49.96636200 21.58892822 6.75434780
49.22839355 21.49245071 6.51724577
55.78781509 20.46757698 6.54529905
55.18271255 21.56748581 6.83345413
54.60700226 21.66020012 6.82924366
53.99444962 22.42291832 6.96939373
51.16100311 23.47345734 6.90023327
54.20613480 22.49761391 6.99526167
48.89463425 24.22131348 6.78970003
50.16457367 23.80425262 7.03679466
51.57201004 24.19055748 6.72710896
49.34357452 24.59242821 6.34028196
53.63832474 23.95187378 6.93012524
52.85919571 24.39734650 6.73568201
48.25507355 25.23883629 5.88164568
48.63872528 25.12065125 5.96364498
51.02573395 25.06526184 6.18243790
42.44116974 26.81369781 6.63338041
45.48117828 26.29063225 5.53083754
43.67866516 26.78248215 5.72599983
42.73351288 27.12985992 5.95914650
51.26411819 25.32091141 6.16325712
45.71449280 26.40043831 5.36506224
43.09641266 27.09040642 5.77531528
48.23628235 26.10802650 5.43534946
44.71862030 26.53069878 5.49791718
49.89882278 26.01536560 5.70225954
51.24460983 26.53251266 6.13209820
48.79885864 27.01388550 5.42695904
49.50767136 26.97364235 5.62995625
42.60026550 28.35786057 4.88126230
45.88003922 28.10321045 4.76207829
43.20546722 28.12481499 4.85977364
44.24924088 28.38458443 4.59104824
43.17486954 28.92227554 4.45719910
50.32561874 27.95442963 6.34328175
39.74558640 30.32001686 5.11581421
49.78911209 27.92128372 6.10344362
39.46740723 30.33907318 5.45471573
43.39857864 30.24302101 4.15119648
42.89933395 30.06374359 4.11800909
48.12703323 29.15552902 5.96705198
44.63339233 29.81158447 4.45859385
39.96742249 30.70442009 4.62530947
47.80060577 29.36014366 5.92606878
45.26113510 29.59924507 4.65886974
44.72724152 30.13225746 4.54725027
43.63214111 30.75682068 4.21872473
44.12083435 30.61082840 4.39177275
47.89067078 30.06624794 6.56514072
49.28563309 29.61790276 6.65756941
48.04393005 30.98413277 6.06853008
46.19406509 31.24736595 6.24764490
46.12221146 1.86212742 33.53775787
44.90998077 2.63810968 32.77294159
50.68478012 6.28740549 33.34999084
51.22579193 6.54046202 33.04004288
50.50828552 6.88337994 32.85882568
40.23876572 12.80954933 14.45992088
48.63514328 32.44782639 36.42382050
49.27474976 33.80932617 37.24565506
45.32713318 29.58201408 11.96268177
47.23878098 29.26806450 12.27082539
45.85505295 30.52792358 11.32471466
45.50294876 31.04279900 10.89830017
44.86888123 31.60124207 10.54192924
34.74245453 -7.87691164 40.77162552
39.35160828 -9.19033432 40.78746796
36.15275955 -8.09668446 40.39097214
39.04550552 -8.95198536 40.42993546
38.60818100 -8.66686153 40.32775879
39.09452820 -4.71565247 37.93174362
39.01111221 -4.24905920 37.58866501
38.49402237 -2.83789253 36.36819839
52.45221710 36.06101608 35.84697723
53.38335419 35.77305984 34.75697708
45.55960083 32.43410873 35.44671249
44.65766907 32.72442245 35.66902924
45.35046387 31.99835014 35.20455170
44.99048996 31.37772751 34.92432022
46.38077545 30.79463768 34.36912537
47.79234695 29.85350418 33.59844208
47.59198380 29.35611534 33.09055710
50.81701279 35.08655930 32.15118408
54.89505768 29.97853851 30.12016869
52.29137421 30.24511719 30.10084724
54.95708084 29.43303680 29.22010803
27.23253822 -1.17738020 29.89624977
28.84644127 -17.43645668 54.82994080
33.30015564 4.39383793 27.85671043
34.52659607 6.13489771 27.65937996
28.28661537 -0.85695285 28.51851463
33.70007324 5.09696150 27.76805496
30.10536957 0.32038322 28.05516815
32.78488922 0.53510207 26.88722420
49.60591125 28.17493629 23.04280853
30.72051811 -17.20697975 53.90087509
36.89701080 4.74156618 25.66511726
49.99256134 28.40128326 22.75815773
50.43708801 28.90016747 21.58958817
51.29712296 28.80168724 20.75596619
49.74423599 29.32900429 20.67312241
49.54981232 29.39970779 20.63710976
50.85294342 28.96630287 20.30081749
48.08494186 29.65325928 20.75102997
51.74279404 28.70392990 20.56589127
52.62792206 28.66433144 20.01060867
49.28445053 29.07686234 19.99321938
51.54272079 28.80411339 19.46859360
29.45896912 4.34163189 23.35940933
31.04976463 5.36142540 22.86542320
36.34941101 5.21468830 19.73003960
35.53102112 4.54597569 19.78812218
35.36996078 3.89659214 19.32434464
32.42422867 2.64906859 19.95126915
35.10734177 3.51237416 19.18269157
31.36378098 1.54703391 19.53461266
35.44046783 3.10220814 18.53098106
35.97114182 3.22998929 18.27274513
32.71347046 0.72244883 17.91291046
36.78358459 3.10751653 17.31435013
30.64336395 -0.20978071 17.97866631
28.32093811 -2.21588302 17.12406921
33.02900696 0.03396224 16.68591499
31.79640388 -1.34951186 16.20380211
32.36583328 -0.98063332 16.22220612
31.02994728 -1.52606308 15.90313148
27.89599991 -2.91875386 16.04530907
33.50138855 4.93185043 14.44045258
43.53785706 30.84443474 11.32179451
32.75569153 4.57196045 13.84358120
32.97152710 4.93307066 13.41403484
29.95533371 1.17027569 14.08497715
32.13222122 3.82645631 13.87339115
31.17564201 2.84464788 13.10475540
32.52567673 4.38940430 13.29671574
30.05187035 1.64435518 13.55685234
31.63578606 3.28230143 13.09712219
32.16371918 3.86405706 12.86895370
29.94023132 1.46542501 12.97879028
27.77573013 -1.15777576 13.09944630
27.90174866 -0.95746773 12.63511467
34.56506348 -4.99524689 37.06127930
32.54961014 -6.73514414 38.21222687
32.63335419 -6.52736902 37.95635223
37.08971024 -1.57652473 34.93342209
32.73995972 -6.35723877 37.66108322
37.30279541 -1.43404889 34.19673920
39.34476471 1.40277302 32.07420349
29.67100143 -18.03783226 53.52953720
33.23478699 2.06636047 25.59143639
30.47829437 2.41340351 20.92308235
40.59016418 12.13763523 10.66142178
41.00346375 12.19971466 10.49982929
44.36402130 -0.80644065 8.60022068
37.55780029 39.31676865 4.20716906
37.64206696 39.26765060 4.17242718
37.78231049 39.36813354 4.15046692
37.04095078 6.48090458 19.89853096
35.88977432 8.00762844 12.58884621
33.57330704 5.62439156 13.57100964
59.87348557 0.94088542 33.58872604
67.27430725 11.14587879 29.63359451
61.06341934 0.75441861 32.80278015
61.28632355 0.01087131 32.60789490
67.25600433 3.15585065 28.92729950
66.21282959 1.71314979 29.42490768
67.41985321 1.96428645 28.42737198
70.23279572 2.87508225 26.58817291
43.17925644 -8.98843384 39.92996216
45.40558624 -6.77734232 38.74183273
44.43872833 -7.59413147 39.18327332
43.29436493 -10.62190819 39.86733627
42.56774902 -12.81494427 40.80050659
42.85225677 -12.98898602 40.46737289
53.31391525 -4.62755585 38.23944092
43.46673584 -14.67429924 40.22280884
54.32543182 -3.86341190 37.49239349
53.57575226 -4.88278675 38.01228333
46.20649338 -12.14308929 38.07184982
53.75441742 -6.58374548 37.51604843
53.52455902 -8.25733948 37.38806152
53.19897461 -12.50912571 36.14356995
57.53366852 -6.02867699 33.41223526
50.12799072 -14.16392708 35.69112015
57.94929886 -6.12126780 33.02869034
54.19239807 -9.28483868 33.37361145
56.80083466 -8.27764606 33.35074997
57.46295547 -7.20073128 33.03068924
57.25057220 -7.33566284 33.14315796
50.95440292 -13.92055130 34.89635086
56.90475464 -9.21845245 32.94033432
51.70467758 -14.82077599 33.72862625
57.40505219 -8.97932816 32.52592850
53.57659912 -12.43738461 33.01943970
53.83483887 -12.23285007 32.83194733
50.61683273 -16.93532944 33.79681396
57.94660187 -10.10914135 31.55253792
58.11090469 -9.65023232 31.54366112
58.24339294 -10.21677971 31.25506210
54.32191849 -14.06498146 31.54223824
63.49196243 -4.63313484 28.30508804
54.10969543 -15.01929092 31.28894997
59.30757523 -10.21071243 30.06521606
61.40171051 -7.62877655 29.19406891
60.56315613 -10.03765869 28.97277451
56.71784973 -13.72676563 29.10872269
61.90088272 -8.99976063 27.89292717
61.87165833 -8.38590908 28.20713997
54.26678085 -4.86256361 36.42983246
63.84106064 1.21997440 30.85231400
68.02951050 1.73578250 26.81398392
62.23226547 -8.79294395 27.53584480
67.90281677 1.44813478 26.38214111
59.37527847 -11.42315769 27.37558556
67.85032654 1.19641280 26.17200089
67.08039093 0.43301857 26.66651917
67.92424774 1.11578846 25.95379257
67.43804169 0.15619439 25.66755867
65.47414398 -4.44849634 25.20973206
67.28381348 -0.89994216 24.70497131
68.33968353 1.15737748 24.75708389
68.49327087 0.78877008 23.89467812
67.63227081 -0.68746787 24.00449181
66.46810150 -3.11351585 24.54810333
56.38190842 -15.43699074 25.82283592
64.85860443 -5.67445230 24.49843025
60.55976486 -11.50571251 24.83445740
61.82976532 -9.83839893 24.74923134
67.03264618 -2.38645148 23.82700157
66.52678680 -3.32588744 23.75655556
64.36078644 -6.49441004 24.27738762
67.54916382 -1.43281198 23.34801483
62.78405380 -8.74096775 24.09273720
57.69176865 -14.42394447 24.73932457
63.67641449 -7.56465816 23.37506676
64.46002197 -6.44481230 23.16824150
64.03088379 -7.05090380 23.04095650
62.73482132 -8.89763546 23.36028290
60.75146103 -11.60017300 23.60725975
67.25350952 -2.29289103 22.89467049
61.05982971 -11.11134529 23.83423424
65.52043152 -4.93192005 23.09391975
66.65559387 -3.24374914 22.33365250
66.21104431 -3.90296865 22.01701546
58.88518143 -14.37859726 23.33699799
58.70058823 -14.66715050 23.38645935
64.22950745 -6.78325558 22.09848213
62.94749451 -8.67233658 22.06510353
63.69136047 -7.57675314 22.17697525
67.90554047 -1.02517986 21.25509071
59.64885712 -13.33370399 22.40448761
65.58135223 -4.81358242 21.19333076
69.30808258 1.47269630 21.11998177
68.67839813 0.50007015 20.79701424
65.44410706 -5.04621983 21.40440178
64.44020081 -6.50401592 21.78078842
67.58609009 -1.59794414 21.05087852
65.13320160 -5.48719072 21.23186684
60.19961166 -12.65563393 21.92641830
61.52503967 -10.81358910 21.67609215
63.92383957 -7.19493675 21.13608742
61.39836884 -11.03457165 21.25487518
68.80420685 0.70439708 20.23782921
67.09161377 -2.41294980 20.54851532
60.94824982 -11.61684036 21.31379509
55.48133850 -16.48645020 21.79504776
58.05848312 -15.20122910 21.65855026
68.62264252 0.45823944 20.31843948
62.70376968 -9.16568756 20.63335419
59.15394974 -13.83444309 20.73497581
61.47605133 -10.87296581 20.66664124
55.10084915 -16.61840439 21.03170013
64.55577850 -6.29833984 19.92706680
56.66436386 -15.35510254 21.08228683
63.26409531 -8.29277039 19.81722069
68.33958435 -0.05178578 19.50232697
69.00478363 1.16287136 18.65152550
65.90200043 -4.11922169 18.93433762
51.88003540 -19.11587906 21.19373703
64.92605591 -5.64805269 18.99953461
65.20439911 -5.25805950 18.83667183
62.51113510 -9.32190132 19.35448837
61.07009506 -11.31089020 19.58400536
53.92330170 -17.29051971 20.57995033
50.41389084 -20.23829269 21.33501434
68.74967194 0.87183285 17.39489365
67.91945648 -0.58336788 17.79333496
60.16974640 -12.30338001 19.36590385
65.94389343 -3.91643763 18.19414711
57.81660843 -14.80389023 19.36257172
61.04485321 -11.01551819 18.87837791
51.81818771 -18.51755333 20.09916496
54.13043976 -16.92422485 20.10154152
52.70995331 -17.67352867 19.68179703
48.50175476 -21.22771263 20.78316498
58.39851761 -14.15028667 19.10226059
52.78250885 -17.48128128 19.45937729
58.74456787 -13.61387825 18.53155708
47.65134048 -21.55892563 20.39045334
61.31061172 -10.46192932 18.33402634
65.39153290 -4.58193636 17.68579483
62.85814285 -8.34775734 17.76944542
56.48789597 -14.98665810 19.00018692
59.80598068 -12.32114410 17.92327309
59.09563828 -12.99097252 17.96991158
60.73623657 -10.70303249 17.44190598
60.10074234 -11.80249596 17.95344734
60.46563339 -11.22637177 17.70702553
63.51791382 -7.32463932 17.47735977
61.25578690 -10.15330219 17.43004227
46.51371002 -22.19464302 20.21871376
62.92974472 -8.01286793 17.10156631
61.87281799 -9.23430824 17.01546288
58.22440720 -13.71024895 17.71689034
54.82595062 -15.22295570 17.65492249
63.03715897 -7.60563374 16.67746353
64.37377167 -5.75997257 16.80714035
62.89332199 -7.52994633 16.27943802
65.33164978 -3.88501954 15.77116585
64.60218811 -5.05199718 16.05422974
46.37239456 -21.66883469 19.12783051
57.14191818 -13.83432484 16.48446274
51.88481903 -16.58160210 17.38788223
64.34764099 -4.98858547 15.37538624
48.71226120 -19.44657326 18.34576988
63.35731506 -6.59862852 15.82279968
60.54487991 -9.96099281 15.86546135
54.93559647 -14.40291786 16.49787140
48.63325882 -19.00600815 17.75835991
62.74199677 -6.99763393 15.30065441
63.89744568 -5.36451626 15.06343269
58.88959122 -11.54041576 15.48658180
57.32172775 -13.24437809 15.78189087
59.18301773 -11.23255062 15.51083565
45.49955750 -21.49424744 18.07918739
64.92598724 -3.64725471 14.40164948
49.78287506 -17.58242989 17.08743477
48.07424927 -18.63491249 16.85519791
47.08804321 -19.70636749 17.28502274
65.17209625 -3.29031324 14.36832142
65.57750702 -2.01398444 13.32235718
50.47100830 -16.35759163 16.00661087
46.99570084 -19.11921883 16.38983345
62.66886520 -5.64326096 13.78649521
64.91426086 -3.40179896 14.09147263
49.58738708 -16.98623466 16.00400925
44.73904037 -20.73026276 16.33545303
66.40966797 -0.01174113 12.27156734
51.83605576 -15.93076420 14.61711407
46.50859070 -18.79149628 15.42739773
47.10872650 -18.10092354 15.01709080
44.65704346 -20.56455612 16.00562096
51.07847977 -16.37900925 14.29582405
46.70298004 -18.36603737 15.00070095
57.08679199 -11.06377316 13.12601471
57.16353226 -10.51915264 12.67654228
44.18914032 -20.42898369 14.80428219
47.57183838 -18.65364647 13.90826607
55.82462311 -11.56801701 12.71283817
62.38751984 -3.47736382 11.59902191
47.50977325 -18.66982079 13.91587257
62.89451981 -2.11531758 11.14611053
61.67110825 -3.73703003 11.31219864
55.64121628 -11.00787354 12.16288090
53.43722916 -12.54188633 12.35172367
61.38157272 -3.40146089 10.94738102
62.24418259 -2.42856169 10.92236328
54.18490601 -11.88779449 12.27755260
57.35602188 -8.74682903 11.37537670
58.32931519 -7.12571478 10.97752476
58.82684708 -6.13928938 10.72729301
56.45705414 -10.47836304 11.20485020
51.56503677 -13.40696239 11.92743587
57.02960205 -9.70660496 10.94775295
56.82742691 -9.82162380 11.25127220
44.60584641 -18.52899742 13.10144424
52.42004776 -12.74558926 11.84368992
51.12606430 -13.42306328 11.65313721
59.57362366 -4.55875492 10.40266800
55.89638901 -11.01339531 10.86419964
52.59309387 -12.21802139 11.41176224
58.83901596 -5.76330471 10.20495510
60.80026627 -3.88058305 10.01383495
59.77822876 -4.42048216 10.07625675
53.10303497 -12.43074226 10.82297325
46.27674866 -16.79842567 11.92687702
59.61331177 -4.36415863 9.42206192
49.17224884 -13.53486538 10.75643253
48.21804047 -13.18146896 10.13044548
47.86881638 -12.90809822 9.84389687
40.56045914 -17.93356133 10.93219566
42.11896515 -16.39643288 10.45297146
41.50342178 -17.08982277 10.10036850
40.41566467 -17.82061195 9.84203815
39.16919708 -18.04569435 10.03911686
38.41351700 -18.23272324 10.20478725
40.74917603 -10.85981083 8.16929817
42.03948593 -10.58839512 7.52076769
57.91780853 2.93790722 35.87981033
56.74034882 1.49553108 35.62754059
56.87108231 2.02574778 35.02032471
60.81029510 5.41105413 33.44124222
63.21495438 0.66246277 30.73391342
64.74824524 -3.08934355 27.70679855
57.46928787 -6.54597473 9.83246803
57.61148453 -5.08545542 9.38128662
57.05562592 -4.53580141 8.94070911
49.63996887 -12.93795967 9.23514366
58.74061584 -3.91111684 8.00547695
22.47895241 -25.56003761 13.93419552
19.12921906 -24.82445526 12.96560001
23.23709679 -25.21596527 12.63113213
26.68902588 -24.18450928 11.76176453
21.73172569 -25.14185143 12.57683659
27.51120377 -23.75481224 11.09438610
24.75051117 -24.96873665 11.42030430
25.94796562 -24.59538269 10.93290710
23.24626923 -25.18367577 11.22309113
21.80017281 -24.90543556 11.25819683
23.83164024 -25.25051689 10.64987183
26.51051903 -24.49957657 9.71898556
22.19402885 -25.27682495 10.07293701
18.23918915 -23.25869751 9.40906048
22.86350250 -25.48032379 9.74495888
15.25659370 -16.53714943 6.45384121
18.50945282 -23.54643059 8.92529011
25.40072441 -25.20366669 8.78109360
15.96661663 -17.53550720 5.84658718
20.53550911 -24.97221184 8.95291901
27.53222466 -23.99742699 7.54189491
19.37108994 -25.03258133 7.74106121
18.35217857 -23.76368904 7.92279434
21.33454514 -25.89605713 8.24159241
58.54196930 -36.23567963 74.34132385
62.79685974 -36.67620468 58.86290359
60.54843521 -38.88041687 67.98776245
53.78239822 -34.27404785 69.13886261
52.96808243 -33.93393326 69.08695984
57.95438385 -36.10538864 67.44741058
51.09622192 -33.08347321 68.35684204
52.26664352 -33.14527130 67.90353394
55.16405869 -35.42868042 66.69718933
54.85428619 -35.03607559 66.47625732
50.90543747 -32.65279388 67.82379150
58.23011017 -35.09375763 66.74115753
59.03011322 -35.13844681 66.83338928
58.42339706 -35.00116730 66.67990112
51.71885681 -32.66151428 67.38697052
62.08408737 -35.36323929 66.96532440
62.38998795 -35.26205063 66.76615906
60.83867264 -35.18799591 66.82495880
56.80076218 -34.50135422 66.22207642
52.64741898 -33.00725174 65.79493713
58.57240677 -34.35995102 65.73596954
47.88043594 -32.06993866 65.15000916
53.59151459 -32.88546371 65.30371857
56.56752014 -33.52927780 65.01632690
55.66091919 -33.62458038 65.42185211
46.72250748 -31.92820358 64.24153900
50.21688461 -31.79586983 64.13413239
51.91733932 -31.96158028 64.35999298
50.98000336 -31.90242767 64.37509918
55.93768311 -33.21746445 64.80545807
52.52461624 -31.91213608 64.01988220
50.61517715 -31.56164932 63.34325790
34.05884552 -29.60842323 61.66150284
45.98772049 -30.96223259 62.87479782
49.40265656 -31.30130386 62.77832031
33.58015060 -28.73633575 61.49243164
32.78803253 -28.34168053 61.81314087
48.06161499 -31.10157394 62.69439697
47.91793442 -30.86125565 62.00233841
40.88424301 -30.39979553 61.45531845
44.75414658 -30.56861496 62.07830811
47.10860825 -30.69924164 61.77407074
49.10907364 -31.05075455 61.99905014
32.81547928 -27.58865166 61.45893860
33.39332581 -28.09653664 61.15593719
36.36043549 -29.49458122 60.52527237
45.17247391 -30.36559296 61.54360580
46.68832397 -30.54772568 61.53396988
48.10242081 -30.83103561 61.79425812
40.86378860 -30.03610039 60.70569611
58.43888855 -33.61880493 61.36601639
49.34740829 -31.00485039 61.40267181
34.63179398 -28.46013069 60.44827271
41.41297913 -29.77070045 59.97007370
59.03614807 -33.64382553 61.37955856
34.32679749 -28.35871315 60.53973389
48.34218597 -30.77791023 61.22439957
58.86373901 -33.17633820 61.05044556
45.35921097 -30.27836037 61.27202606
46.82203293 -30.46917534 61.16852570
