-21.52335358 -9.83868217 -28.72019386 -0.094164 0.139458 -0.985741
-21.77735901 -9.91097546 -28.63172531 0.068292 0.126167 -0.989656
-25.46328545 -8.93661976 -29.05086899 0.353197 0.006330 -0.935528
-47.59397125 -5.79524517 -21.04492188 -0.043038 0.358646 -0.932481
-25.25521660 -8.87563801 -28.90394020 0.332044 -0.058596 -0.941442
-19.71638680 -9.98180866 -28.38603592 0.331929 0.242062 -0.911718
-18.42223167 -10.57932186 -27.61285591 0.571437 0.063808 -0.818162
-50.58964539 -5.34854412 -20.72391510 -0.021311 0.314651 -0.948968
-45.59775925 -6.06505156 -21.29133415 -0.137680 0.180627 -0.973868
-53.21439362 -4.46116304 -20.47541428 0.022934 0.245027 -0.969245
-22.20217323 -9.11334801 -28.78350449 0.335134 0.203932 -0.919835
-11.75559902 -12.11475754 -20.73542976 0.802346 -0.227254 -0.551903
-19.11342430 -9.30779934 -27.83820724 0.442308 0.212963 -0.871212
-24.02075195 -8.27600670 -29.07429504 0.302851 0.305805 -0.902643
-43.91550827 -5.36303234 -21.35883904 -0.135434 0.381171 -0.914531
-12.68119144 -11.65974522 -21.90558052 0.522597 -0.379330 -0.763545
-39.44820786 -6.36500883 -22.30603600 -0.194308 0.196952 -0.960965
-15.56313133 -10.39421654 -25.64254951 0.722599 -0.153003 -0.674122
-13.86943340 -10.23175621 -23.25783730 0.567837 -0.341349 -0.749027
-15.23534966 -9.96133327 -25.29311371 0.759622 -0.044015 -0.648874
-11.67237854 -11.10352135 -20.89499092 0.828572 -0.075584 -0.554758
-10.54296303 -11.32221794 -19.22709084 0.749025 -0.275120 -0.602719
-12.10915947 -11.02732182 -21.53980446 0.778622 -0.073401 -0.623185
-11.36442471 -11.02248192 -20.41234970 0.809627 -0.147611 -0.568081
-10.97490120 -10.81551075 -19.95645905 0.766710 -0.202090 -0.609357
-12.67270756 -10.29058552 -22.24887466 0.709979 -0.146217 -0.688876
-13.41872025 -9.53310776 -23.13567162 0.663508 -0.107876 -0.740351
-15.08814621 -9.09271240 -25.10325050 0.721048 0.070804 -0.689258
-35.78004074 -5.56781006 -22.97188950 -0.295459 0.405681 -0.864943
-12.05782318 -10.08957291 -21.45736122 0.767384 -0.049830 -0.639249
-34.48323059 -5.08652401 -23.20570374 -0.271011 0.378816 -0.884902
-12.10975266 -9.09424210 -21.66989517 0.718828 -0.146177 -0.679646
-13.47377777 -8.76420879 -23.32002449 0.734494 -0.222999 -0.640928
-14.10579967 -7.96162796 -23.64569283 0.573837 0.392971 -0.718529
-13.40814209 -8.03155136 -23.43513298 0.534835 -0.232738 -0.812271
-36.47219086 -3.95225763 -22.49060249 -0.213525 0.187000 -0.958873
-13.95492172 -7.87392664 -23.55320740 0.360238 0.338777 -0.869171
-36.85385132 -3.48567605 -22.28458214 -0.251249 0.231815 -0.939753
-12.34185410 -7.39258242 -23.53160667 0.294902 -0.565893 -0.769934
-17.15345001 -37.19332886 17.62639809 0.739136 0.661490 -0.126922
-23.31953430 -5.36808681 -27.49053001 0.314308 0.422690 -0.850025
-9.93793392 -8.89042664 -19.53481102 0.134439 -0.206140 -0.969243
-14.17943668 -7.21370459 -23.90773582 0.387493 -0.544453 -0.743922
-9.48223019 -8.60422993 -19.84028435 -0.180692 -0.207071 -0.961495
-7.50478077 -10.06822872 -15.34931087 0.522524 -0.238912 -0.818468
-17.62242699 -6.21713209 -26.19639778 0.412197 0.275305 -0.868505
-36.97920227 -2.93655705 -22.04973793 -0.262963 0.309453 -0.913832
-35.69356155 -2.97362709 -22.46656609 -0.286906 0.272489 -0.918387
-12.13681889 -7.32186460 -23.51388359 0.419867 -0.429519 -0.799516
-12.78346539 -6.89121246 -23.89432335 0.452062 -0.210366 -0.866825
-15.80099487 -6.41231155 -25.09756660 0.555255 0.265830 -0.788052
-11.06759644 -7.16508913 -22.43374062 0.770584 0.095044 -0.630212
-33.62187958 -3.04390669 -22.89832497 -0.168068 0.199336 -0.965411
-13.75413418 -6.19492197 -24.71046066 0.488406 -0.031291 -0.872056
-23.28202057 -3.92588210 -26.34080696 -0.555623 0.744633 -0.369872
-25.18316460 -3.40565157 -25.79444695 -0.155017 0.612544 -0.775087
-34.64705276 -1.79960227 -22.43028259 -0.220709 0.212584 -0.951891
-10.15093994 -6.38551569 -21.09983444 0.768612 0.064650 -0.636440
-10.56576061 -6.24422979 -21.52668762 0.748467 0.192112 -0.634737
-7.98100090 -7.36926556 -17.51790237 0.872121 -0.131179 -0.471378
-23.66276550 -2.90183926 -25.74775505 -0.310382 -0.107901 -0.944468
-20.20201874 -3.42225337 -25.53205681 0.366048 0.226046 -0.902725
-24.51017952 -2.35498238 -25.47053719 -0.413320 -0.285206 -0.864769
-25.55055618 -2.19237614 -24.91790390 -0.559546 -0.183483 -0.808234
-7.02671576 -6.83750820 -16.16034317 0.812503 -0.090920 -0.575823
-26.59858322 -1.79532766 -24.01015091 -0.511731 0.280122 -0.812197
-6.13463116 -7.14913559 -14.94942856 0.772745 -0.107448 -0.625556
-15.59743404 -3.34922934 -24.92767906 0.615769 0.300650 -0.728312
-25.57829666 -1.43664289 -25.23256302 -0.390728 0.016875 -0.920352
-32.90058136 0.14271286 -22.41535759 -0.270010 0.316715 -0.909278
-10.02551270 -4.94069910 -20.60859299 0.650751 0.258084 -0.714084
-33.13626480 0.19168228 -22.31925392 -0.349756 0.393281 -0.850295
-10.70754719 -3.84608984 -21.06293678 0.695601 0.179659 -0.695601
-12.50399780 -3.21363616 -22.10188484 0.324453 0.031809 -0.945367
-20.86976051 -0.94082516 -24.67367744 0.195192 0.139058 -0.970857
-16.81928444 -1.29934263 -23.68436623 -0.524530 0.356680 -0.773077
-7.24432516 -4.66164446 -16.89728355 0.861300 -0.131728 -0.490724
-6.87800026 -4.32600164 -16.34659958 0.850998 -0.101890 -0.515191
-7.91469145 -3.63315511 -18.23411179 0.703169 0.275846 -0.655334
-8.66154194 -3.44543648 -18.80177307 0.673727 0.230857 -0.701995
-22.55126381 0.17140500 -23.85671234 0.078378 0.433142 -0.897911
-6.50040150 -3.99983287 -15.83348179 0.831715 -0.093370 -0.547295
-9.73643970 -2.59684300 -19.72984123 0.690778 0.203353 -0.693883
-9.76110077 -2.87260032 -19.80692673 0.686504 0.189753 -0.701931
-30.42328072 1.52684927 -22.59500122 -0.097731 0.194226 -0.976076
-29.24700928 2.44798732 -22.50926781 0.049218 0.131629 -0.990076
-8.58367252 -1.72527015 -18.26181602 0.739308 0.143043 -0.657999
-8.32285976 -1.70118809 -17.93861771 0.739191 0.070881 -0.669756
-8.94148159 -1.32869196 -18.54026413 0.686841 0.175917 -0.705197
-9.84812832 -0.67441958 -19.08062172 0.553470 0.352208 -0.754732
-10.45668030 -0.25449425 -19.30808640 0.561924 0.407024 -0.720120
-8.21303082 -0.38899377 -18.59908485 0.127260 -0.453274 -0.882240
-16.52017403 1.11859906 -21.29598618 0.278588 0.600158 -0.749799
-6.92216301 -0.23903337 -17.20385361 0.754845 0.288852 -0.588875
-15.83431244 1.83092570 -20.45369530 0.294292 0.511470 -0.807336
-17.61914825 2.51309586 -20.86220551 0.255921 0.365390 -0.894983
-10.22742939 1.85474145 -18.99778366 -0.387120 -0.198634 -0.900379
-14.43583965 2.70035529 -20.38952637 0.359795 0.245248 -0.900223
-12.17073822 2.23099756 -19.02617645 0.462612 0.413916 -0.784005
-26.02286339 5.19300508 -21.45405769 0.320049 0.198797 -0.926309
-8.62890148 1.27993953 -17.69625664 0.518928 0.385536 -0.762939
-11.64310455 2.40749311 -18.55893135 0.529261 0.376182 -0.760507
-7.28565359 1.40132940 -17.05891418 0.750510 0.142883 -0.645228
-10.05771542 2.50244045 -19.16314125 -0.039876 0.067897 -0.996895
-11.99386978 2.88916326 -18.70867348 0.659786 0.061810 -0.748907
-25.09452820 5.81062317 -21.00462341 0.383564 0.227787 -0.894982
-8.00087643 1.69647264 -17.46629333 0.355680 0.067434 -0.932172
-7.19623184 1.70297790 -16.79371452 0.799300 0.230359 -0.555026
-19.41501427 4.89037609 -20.14562035 -0.259517 0.223435 -0.939536
-7.41931057 2.06158590 -17.01535034 0.717825 0.286171 -0.634692
-24.04029655 5.74469185 -20.53785896 0.430697 0.283555 -0.856795
-7.29385376 2.46572495 -16.53936958 0.727942 0.329114 -0.601485
-8.63625431 2.64287233 -16.83022308 0.019358 -0.025471 -0.999488
-10.99464607 3.90133882 -18.16316986 -0.382599 0.453036 -0.805219
-20.56045532 5.94547987 -18.80426025 -0.655478 0.318837 -0.684610
-24.95519638 7.36462975 -20.41663933 0.309482 0.382660 -0.870513
-17.49977493 5.66568565 -18.62884903 0.257399 0.373451 -0.891224
-23.32086182 6.98386097 -19.69347763 0.533386 0.199070 -0.822114
-21.08780479 6.46849108 -18.11498451 0.305437 0.561300 -0.769189
-23.37671852 7.33578253 -19.64700508 0.526082 0.239128 -0.816122
-16.87090874 6.01903105 -18.47830582 0.195203 0.466401 -0.862767
-22.12726593 7.20029163 -18.75174141 0.589660 0.215125 -0.778475
-21.33501053 7.06368113 -18.08555603 0.617814 0.212132 -0.757170
-10.85413361 7.13216114 -14.64665604 -0.112866 -0.405482 -0.907108
-8.49425030 6.71496630 -14.57866192 0.605392 0.416310 -0.678370
-8.22163677 7.35695410 -14.12255764 0.542954 0.087388 -0.835203
-7.19256401 7.47116899 -13.20195675 0.747203 0.107586 -0.655829
-39.87634659 -31.76379013 -26.85132027 0.157886 -0.964280 0.212690
-39.84173584 -32.03018951 -27.63172531 0.423577 -0.842464 0.332922
-40.41765213 -32.41327667 -27.87201881 0.321101 -0.864976 0.385629
-41.07712555 -32.68192291 -27.87670898 0.206106 -0.896050 0.393210
-44.02397537 -32.57093811 -28.56156921 -0.316653 -0.854190 0.412421
-46.08164597 -31.71811295 -28.45742035 -0.431602 -0.861678 0.266891
-41.26281357 -32.96994400 -28.58054733 0.219341 -0.904962 0.364600
-39.84285736 -32.69011688 -29.23394394 0.404739 -0.885088 0.229797
-40.15947723 -32.97117996 -29.71832275 0.416980 -0.877302 0.237634
-44.80779648 -32.81655121 -29.84675789 -0.316183 -0.869122 0.380336
-40.39057922 -33.13924408 -29.91991997 0.341790 -0.898123 0.276687
-41.63004303 -33.55354309 -30.10596275 0.166133 -0.949526 0.266083
-44.05656433 -33.11933899 -29.83507347 -0.190887 -0.908505 0.371726
-43.44839478 -33.23091125 -29.94804764 -0.219684 -0.903469 0.368080
-41.47440338 -33.59794998 -30.39917183 0.209743 -0.951284 0.225981
-44.08473587 -33.82354736 -31.67210579 -0.233743 -0.919200 0.316916
-44.56624603 -33.79555130 -31.97846031 -0.221986 -0.906804 0.358369
-42.31696320 -33.99887848 -31.99220085 0.097778 -0.976543 0.191843
-44.38907623 -34.08681870 -32.56399536 -0.120618 -0.936480 0.329327
-10.33145714 -38.10687637 -33.21813965 0.086954 -0.531702 0.842456
-43.23107529 -34.33495712 -33.48419189 0.071138 -0.980259 0.184477
-11.25905800 -38.85665512 -33.98904037 0.186683 -0.938947 0.289013
-11.73552036 -39.12852478 -34.71842194 0.211607 -0.976740 0.034670
-15.61658764 -39.86329651 -34.41631317 0.087583 -0.995847 -0.024869
-16.65801239 -39.94383240 -34.39784622 0.061193 -0.997335 -0.039722
-15.73379326 -39.86661911 -34.25618744 0.094439 -0.994384 0.047775
-12.24295425 -38.97025681 -35.61399841 0.212646 -0.930854 -0.297141
-14.45709991 -39.72309875 -35.41673279 0.020703 -0.994856 -0.099159
-43.07125092 -34.46619797 -35.70437622 0.268196 -0.962786 -0.033370
-44.25166321 -34.80290222 -35.85457993 0.304607 -0.945744 0.113064
-43.85140991 -34.73706818 -36.72487640 0.514483 -0.811601 0.276789
-19.44396019 -39.68376160 -36.59687424 -0.573670 -0.777991 0.256187
-43.97916031 -34.90944672 -36.91524506 0.484541 -0.779478 0.397032
-44.13912582 -34.97856522 -36.85500336 0.435081 -0.824281 0.362304
-42.85039520 -34.03148651 -37.21236420 0.572146 -0.743951 0.345232
-16.27549744 -39.69597626 -36.83270645 -0.491593 -0.870160 0.034044
-46.28381348 -35.63491058 -37.13857269 -0.097864 -0.908342 0.406617
-46.84111404 -35.59722519 -37.27021027 -0.181572 -0.893334 0.411079
-20.57924271 -39.30296707 -37.61526489 -0.599892 -0.603272 0.525540
-45.94635391 -35.72884750 -37.30062866 0.027488 -0.917575 0.396612
-46.28809357 -35.79208374 -37.41329956 -0.082760 -0.918499 0.386665
-15.18384075 -40.16070938 -37.64715195 -0.437198 -0.899341 -0.006565
-15.85930157 -39.68868637 -38.25742722 -0.347308 -0.937605 0.016538
-42.25098038 -34.00772858 -38.21415329 0.701445 -0.660089 0.268808
-44.81982422 -35.72026062 -37.80985641 0.300989 -0.890987 0.339923
-23.91544724 -37.82341003 -38.58374405 -0.136256 -0.525978 0.839513
-43.18695450 -35.14978790 -38.49124146 0.521339 -0.824052 0.221684
-20.61730957 -39.45463181 -38.11135483 -0.318420 -0.947708 0.021396
-18.98744392 -39.79647446 -37.85807037 0.072062 -0.991711 -0.106377
-19.71508598 -39.67749023 -38.12103653 -0.204753 -0.970349 -0.128447
-20.13057899 -39.54845428 -38.32715225 -0.202423 -0.974859 -0.093139
-46.26792908 -35.94723129 -37.91605759 -0.019139 -0.935263 0.353435
-21.02946281 -39.26982498 -38.18385315 -0.391199 -0.906159 0.160747
-17.26041412 -39.73507690 -38.49990082 -0.089942 -0.900806 0.424804
-22.08437729 -38.82598495 -38.77094269 -0.386271 -0.863339 0.324714
-26.96189308 -39.06804276 -38.55047226 0.188034 -0.869101 0.457500
-25.13409233 -38.37636948 -39.31998825 0.089254 -0.730129 0.677455
-15.69757366 -39.82169724 -38.88031769 -0.565916 -0.787293 0.244762
-30.21212387 -39.08310318 -38.76538086 -0.307675 -0.809423 0.500170
-21.86646271 -38.92539215 -39.26011276 -0.320705 -0.947139 -0.008735
-22.58757210 -38.82943344 -39.32509613 -0.140348 -0.984838 0.101963
-47.12937164 -36.27805328 -38.90178299 -0.095523 -0.904010 0.416703
-47.10696030 -36.31365585 -38.98180389 -0.095540 -0.901400 0.422315
-29.59588814 -39.23557281 -38.76387787 -0.214369 -0.882608 0.418389
-27.13893509 -39.32125092 -39.36889648 0.108136 -0.957587 0.267082
-44.36036301 -36.69419861 -39.69544601 0.089289 -0.721628 0.686498
-12.56173515 -40.04838562 -40.37654114 0.016879 -0.999857 -0.000993
-46.55571747 -36.79137421 -39.81470490 -0.130046 -0.910324 0.392936
-22.71531487 -38.82429886 -40.04753494 0.035090 -0.929243 0.367798
-10.33447742 -40.01725388 -40.18832016 0.151904 -0.975451 0.159437
-13.10998535 -40.09760284 -40.16447067 0.026717 -0.997075 0.071601
-21.32659912 -39.10343170 -39.98101807 -0.206468 -0.976143 0.067194
-32.22891998 -38.57091904 -39.37234497 -0.411396 -0.509738 0.755593
-36.09505463 -37.07403946 -39.89195633 -0.179808 -0.392701 0.901917
-16.23468399 -39.79777527 -40.02337646 -0.036380 -0.998883 -0.030143
-34.51554871 -37.92691040 -39.94871521 -0.346441 -0.490126 0.799847
-37.37147903 -36.90522003 -40.04889679 -0.121689 -0.401432 0.907769
-17.90304565 -39.76473618 -40.33030319 -0.119770 -0.989554 -0.080234
-40.53518677 -36.57831573 -40.15610123 -0.050752 -0.478715 0.876502
-11.52329159 -40.02820587 -40.76708603 0.014894 -0.999885 0.002979
-25.20377922 -39.34058762 -40.26914978 0.088303 -0.944977 0.314992
-20.82438850 -39.27672958 -40.77858353 -0.137290 -0.982901 0.122711
-21.13029671 -39.23499298 -40.53080368 -0.107086 -0.978545 0.176015
-17.25656891 -39.84522247 -40.55080414 -0.095360 -0.987738 -0.123614
-38.25739288 -37.44978333 -40.49022675 -0.131164 -0.564446 0.814983
-26.40307236 -39.63061142 -40.65112686 0.095914 -0.962979 0.251935
-26.91118050 -39.58423996 -40.34867096 0.047214 -0.974554 0.219123
-31.30473709 -39.45242691 -40.10109329 -0.179607 -0.941910 0.283807
-6.42950726 -37.92600632 -42.22186661 0.428335 -0.889841 0.157200
-27.30306053 -39.61473083 -40.38376999 0.022571 -0.975291 0.219767
-11.07536793 -39.99674988 -41.02520752 0.025935 -0.999004 0.036309
-18.68635368 -39.67730713 -40.88748550 -0.072819 -0.997300 -0.009498
-39.44819641 -37.30627060 -40.48059845 -0.104048 -0.608170 0.786958
-7.74266243 -38.44907761 -42.58302307 0.280605 -0.959044 0.038661
-12.68676662 -40.02032852 -41.47879791 0.280672 -0.951091 0.129029
-19.76518822 -39.50094986 -41.42848969 -0.217180 -0.975511 0.034797
-24.23105049 -39.39695740 -40.76862335 0.145920 -0.939614 0.309568
-39.28419495 -37.65935898 -40.76570892 -0.098425 -0.706605 0.700729
-25.45038414 -39.65808487 -40.97316360 0.138400 -0.947304 0.288894
-38.53668976 -37.69660187 -40.74014282 -0.129791 -0.634035 0.762334
-31.54616356 -39.51630783 -40.60187912 -0.092411 -0.954049 0.285043
-15.82992840 -39.76294327 -41.55906296 -0.050971 -0.996648 -0.063985
-17.70853424 -39.64675522 -41.20753479 -0.069050 -0.992740 -0.098482
-27.14670563 -39.75599670 -41.12091064 -0.024235 -0.984401 0.174261
-34.98889542 -38.95370865 -41.08574295 -0.214568 -0.829357 0.515875
-17.22048378 -39.69436264 -42.30676270 -0.078154 -0.996734 -0.020342
-25.98212624 -39.78890228 -41.54297256 0.074454 -0.977671 0.196511
-39.96510696 -38.00422287 -41.31175995 -0.161010 -0.799029 0.579334
-45.28322601 -37.41685867 -41.10010529 -0.191760 -0.947919 0.254320
-22.68633080 -39.52660370 -41.92087555 0.047326 -0.974432 0.219642
-29.58862686 -39.76395035 -41.37161636 -0.020941 -0.993060 0.115728
-40.06037903 -38.05818558 -41.44517899 -0.207700 -0.783108 0.586177
-47.96308136 -36.57038116 -41.37315750 -0.492760 -0.869496 -0.034125
-17.96441078 -39.65168762 -42.19992447 -0.017423 -0.999276 -0.033822
-35.73938370 -38.98585129 -41.44486618 -0.163167 -0.859934 0.483621
-35.94847488 -38.95290756 -41.44174957 -0.176214 -0.860339 0.478295
-11.21570683 -40.20245743 -42.83200455 0.276739 -0.959108 0.059391
-18.53310013 -39.66316605 -42.33510971 -0.026454 -0.997829 -0.060314
-22.47500801 -39.58583450 -42.29642105 0.046087 -0.982001 0.183165
-39.48625183 -38.46772766 -41.86313629 -0.149647 -0.870277 0.469281
-20.54402924 -39.44050980 -42.60519409 0.088546 -0.981280 0.171026
-21.87437248 -39.55907440 -42.21696091 0.086166 -0.991483 0.097655
-39.97138596 -38.42126465 -41.91632462 -0.194971 -0.864718 0.462870
-24.97805595 -39.83634186 -41.94083405 0.120422 -0.962084 0.244729
-25.50694275 -39.89522552 -42.08477783 0.049590 -0.976083 0.211666
-29.49265862 -39.86250305 -42.02632904 -0.027409 -0.994411 0.101963
-42.87773895 -37.84040070 -41.78414154 -0.054129 -0.928114 0.368341
-48.26660538 -36.30052185 -42.08676147 -0.560779 -0.810349 -0.169888
-50.17965317 -34.21952057 -42.28438187 -0.775604 -0.581311 -0.246000
-37.77423477 -38.93465424 -41.97024536 -0.178709 -0.866960 0.465234
-42.94934845 -37.96214294 -42.15497589 -0.072172 -0.905552 0.418052
-26.39983368 -39.94219971 -42.78992844 -0.028348 -0.998481 0.047247
-28.31009674 -39.93336487 -42.53829575 -0.026933 -0.996539 0.078646
-38.63773346 -38.95243073 -42.36328506 -0.248662 -0.899009 0.360486
-18.78033638 -39.59203720 -43.18080902 -0.023387 -0.999540 -0.019320
-24.68764305 -39.87721634 -42.45899582 0.120198 -0.977694 0.172243
-36.07670593 -39.36709976 -42.21135712 -0.095380 -0.933652 0.345250
-40.40981293 -38.54092407 -42.41655731 -0.218324 -0.880723 0.420311
-24.42010498 -39.94524765 -43.09021378 0.132437 -0.982947 0.127577
-35.95533371 -39.38670731 -42.27305603 -0.088450 -0.943904 0.318155
-48.01475525 -36.27911758 -42.85006714 -0.558334 -0.784813 -0.268944
-31.79147720 -39.81105423 -42.44341278 -0.048610 -0.997049 0.059412
-34.92038345 -39.53773880 -42.48646545 -0.106107 -0.965190 0.239060
-33.76506805 -39.63677216 -42.65795898 -0.049692 -0.994947 0.087237
-30.69250679 -39.84030914 -42.66255951 -0.045176 -0.994984 0.089251
-44.22263718 -37.79545212 -42.97428513 -0.165244 -0.985683 -0.033511
-48.13677597 -36.09833908 -43.04570770 -0.594800 -0.739873 -0.314325
-21.84100151 -39.67130280 -43.54371643 0.095360 -0.987738 0.123614
-27.62000847 -39.96849823 -42.89326477 -0.001061 -0.995927 0.090153
-28.35444260 -40.01461411 -43.49292755 -0.001115 -0.988615 0.150466
-33.94456100 -39.62898254 -42.80717087 -0.060392 -0.995925 0.066981
-20.10252953 -39.56880569 -43.47379303 -0.007257 -0.998347 0.057019
-17.11434555 -39.62854385 -44.10657120 -0.039562 -0.997609 -0.056670
-30.16583443 -39.88346863 -42.76873779 -0.049902 -0.994707 0.089823
-45.98941803 -37.22672272 -43.47661591 -0.359114 -0.892569 -0.272688
-14.16981983 -40.07570267 -44.20144272 -0.412448 -0.906281 0.092421
-15.38180637 -39.67691803 -44.46129990 -0.140220 -0.988491 -0.056783
-36.53231812 -39.47281647 -42.80220795 -0.068707 -0.979985 0.186836
-40.21934128 -38.86722183 -43.21660233 -0.252748 -0.950171 0.182465
-25.81160736 -40.04825592 -43.61098480 0.016244 -0.995212 0.096381
-30.52966690 -39.92899704 -43.49700165 -0.075264 -0.990006 0.119264
-45.33694458 -37.45736694 -43.47473526 -0.322666 -0.922513 -0.211794
-18.58970070 -39.61806870 -44.66000748 0.040364 -0.996006 0.079637
-37.43275070 -39.47726822 -43.62339020 -0.118519 -0.985266 0.123308
-43.95249939 -37.82623672 -43.87339020 -0.252106 -0.956945 -0.143872
-33.15192795 -39.73742676 -43.72880554 -0.102831 -0.994029 0.036488
-42.80163193 -38.14875031 -43.59180832 -0.250091 -0.963173 -0.098754
-16.90167236 -39.58320236 -45.28162384 0.039885 -0.999162 0.009204
-33.13034821 -39.77016449 -44.09718323 -0.086692 -0.995315 0.042797
-38.36183929 -39.35191345 -43.64188766 -0.168812 -0.982939 0.073032
-28.06317329 -40.14752579 -44.16496658 0.022256 -0.980428 0.195617
-40.84188461 -38.72148514 -44.13167953 -0.284974 -0.953817 -0.094991
-39.27423096 -39.15094757 -43.83204269 -0.232041 -0.971136 0.055248
-20.27206802 -39.67666245 -44.67708588 -0.030081 -0.992678 0.116982
-23.62042236 -39.99098206 -45.00252151 0.087215 -0.995979 0.020458
-30.85841560 -39.99058533 -44.13502502 -0.104812 -0.977833 0.181263
-36.80662537 -39.59946060 -43.86264038 -0.180786 -0.983522 0.001137
-27.13115883 -40.15327835 -44.22381973 0.063606 -0.980486 0.186016
-34.15270233 -39.67430878 -44.54115295 -0.093056 -0.995155 -0.031749
-8.83493042 -38.59257507 -46.12666321 0.503213 -0.450417 0.737496
-10.31330204 -39.98628235 -45.60133362 0.276063 -0.864793 0.419432
-31.43332672 -39.99356461 -44.42671967 -0.089589 -0.978119 0.187769
-17.21401787 -39.62466431 -45.25642014 0.076018 -0.996802 0.024626
-29.67583275 -40.13895035 -44.37363052 -0.068162 -0.970384 0.231752
-14.73560715 -39.79224014 -45.44195175 -0.342930 -0.936107 -0.078119
-18.01533890 -39.67871475 -45.56428146 0.079888 -0.989921 0.116938
-22.09012604 -39.91043472 -45.14466858 0.054668 -0.987517 0.147720
-15.85058689 -39.59793091 -45.81636810 -0.045237 -0.998373 0.034717
-41.38770294 -38.44684219 -44.69614792 -0.307218 -0.927317 -0.213778
-14.21438122 -40.01619720 -45.76797867 -0.467180 -0.875783 -0.121438
-16.47173691 -39.59583664 -45.82069778 0.011541 -0.997746 0.066097
-24.90298271 -40.11441040 -45.58385468 0.109068 -0.992858 -0.048350
-32.70314789 -39.88573456 -45.10384369 -0.214867 -0.952714 0.214867
-26.72036934 -40.22682190 -44.96130753 0.066998 -0.986165 0.151627
-19.28158760 -39.83238602 -45.76568604 0.081531 -0.979586 0.183748
-30.44532204 -40.27250290 -45.01628876 -0.095039 -0.966859 0.236963
-40.93483734 -38.49249649 -45.04182816 -0.295884 -0.905318 -0.304717
-6.90675592 -38.62048721 -47.11627197 0.424942 -0.624914 0.654910
-22.99963570 -39.98872757 -45.51779938 0.065440 -0.994917 0.076532
-27.90716934 -40.35736084 -45.37758636 0.069910 -0.991340 0.111168
-33.62692261 -39.76006317 -44.99438858 -0.149329 -0.986513 0.067022
-36.89444351 -39.46983719 -44.61887741 -0.103578 -0.974629 -0.198420
-39.98410797 -38.53741837 -45.66646194 -0.292123 -0.876369 -0.382938
-8.54792309 -39.26365280 -47.19437027 0.565032 -0.771946 0.291270
-30.66789818 -40.28543472 -45.24890900 -0.119524 -0.954879 0.271884
-15.93807507 -39.67435455 -46.52781677 0.013723 -0.997549 0.068614
-22.27830315 -40.03585815 -46.13121796 -0.035418 -0.997082 0.067617
-15.61650562 -39.64334106 -46.61981964 -0.009406 -0.998053 0.061660
-9.97222328 -39.93014908 -46.91651535 0.078646 -0.996539 -0.026933
-9.38493443 -39.92345047 -47.12722397 0.175768 -0.980662 0.086066
-10.63900661 -40.01083755 -46.77609253 0.077988 -0.996748 -0.020298
-5.88076115 -38.54050446 -47.97099686 0.618174 -0.741492 0.260866
-7.12665701 -39.18291092 -48.01701355 0.308706 -0.928937 0.204394
-21.66049576 -40.01497650 -46.50574875 -0.016685 -0.991061 0.132364
-16.14560127 -39.72450256 -46.72713852 0.013939 -0.996124 0.086853
-24.56056786 -40.02441788 -46.77455521 -0.007089 -0.999544 -0.029369
-32.76881027 -40.18274307 -45.97479630 -0.298834 -0.905333 0.301778
-30.17281914 -40.45119476 -45.80896759 -0.052738 -0.985616 0.160558
-18.42699242 -39.90033340 -47.14910126 0.156964 -0.983723 0.087469
-35.17321396 -39.49434662 -46.83186722 -0.425878 -0.888094 0.172967
-23.59259987 -40.09720612 -46.70620346 -0.015403 -0.999159 0.037995
-27.43336678 -40.30575562 -46.82699966 0.098290 -0.993072 -0.064397
-20.54869461 -40.14817047 -47.74322891 0.037573 -0.997285 0.063337
-35.85931015 -39.29959869 -46.58805466 -0.286493 -0.925043 -0.249434
-24.43637085 -40.03419113 -47.39586639 -0.088321 -0.995518 -0.033802
-33.59926224 -40.15462875 -46.77853012 -0.280329 -0.921492 0.268828
-18.31692696 -39.93116760 -47.95466232 0.182513 -0.980250 0.076148
-16.29662704 -39.87701035 -48.11174393 -0.091494 -0.995675 0.016146
-29.87406921 -40.54504776 -47.22770691 0.055199 -0.996826 -0.057364
-29.35329819 -40.46539688 -47.56448746 0.063748 -0.994244 -0.086116
-33.74228287 -40.31314087 -47.40768814 -0.185971 -0.966267 0.178168
-26.67130661 -40.08725357 -48.12249374 0.123857 -0.984840 -0.121452
-34.47931290 -40.29255295 -47.73942184 -0.152010 -0.958322 0.241894
-34.94894791 -40.26595688 -47.72563934 -0.093858 -0.883942 0.458081
-31.27420235 -40.48698044 -48.07815933 -0.031603 -0.982022 -0.186104
-32.45090485 -40.51642227 -47.54681015 -0.037875 -0.996649 -0.072503
-17.13711929 -39.91075897 -49.31436920 0.226077 -0.970508 0.083686
-19.62111473 -40.16004181 -49.06993866 0.109096 -0.991049 0.076941
-33.82143784 -40.37211227 -48.17072678 -0.033735 -0.995726 -0.085970
-38.67440414 -40.21680450 -47.93580246 0.099694 -0.825004 0.556264
-35.22655106 -40.36749268 -48.22446823 0.001030 -0.998507 0.054614
-36.57235336 -40.19981766 -47.93555450 -0.090857 -0.814826 0.572541
-26.43829155 -39.98361588 -48.67865372 0.111599 -0.979865 -0.165559
-36.16957092 -40.27074814 -47.99141312 -0.070593 -0.881718 0.466466
-39.06307602 -40.42016220 -48.26039505 0.080641 -0.958730 0.272643
-17.02605629 -39.94755554 -49.67745209 0.380452 -0.924692 0.014186
-39.73420334 -40.44792938 -48.28782272 0.010814 -0.967267 0.253532
-33.19892120 -40.12179184 -48.99587631 0.061288 -0.940178 -0.335126
-34.40547943 -40.34669876 -48.38141251 0.027841 -0.999165 -0.029903
-16.67516899 -39.45803452 -50.20895767 0.315978 -0.942600 -0.107992
-37.47135925 -40.35009766 -48.74149704 0.007215 -0.998800 0.048445
-36.92280960 -40.35260391 -48.94092941 -0.033348 -0.999443 0.001011
-44.73843765 -40.68009186 -48.11344910 0.080556 -0.972869 0.216882
-18.84537125 -40.11919403 -50.24359131 0.112821 -0.993480 0.016430
-39.12352371 -40.45864487 -48.70544434 0.069050 -0.992740 0.098482
-46.37222290 -40.69426727 -48.21798325 -0.061146 -0.943202 0.326543
-20.40312767 -40.16517258 -50.00082779 -0.098319 -0.986743 -0.129118
-38.11219406 -40.35913849 -49.28459167 0.003183 -0.996295 -0.085942
-36.35802078 -40.35913849 -49.45664597 0.046736 -0.990568 -0.128808
-44.21415329 -40.65479279 -48.93042374 0.068214 -0.994139 -0.083870
-36.76124954 -40.12614059 -50.26633453 0.137340 -0.868857 -0.475631
-37.64681625 -40.36291885 -49.71638107 -0.037573 -0.997285 -0.063337
-44.66334152 -40.63086700 -50.03291321 0.070338 -0.996630 -0.042203
-39.56364822 -40.48074722 -50.44710922 0.222038 -0.974829 -0.020185
-46.85259628 -40.75813293 -50.04807663 0.057845 -0.998081 0.022086
-40.93497086 -40.69495010 -51.23178864 0.040116 -0.996391 0.074811
-48.84971619 -40.77950668 -50.49635696 0.074430 -0.863666 0.498539
-46.55757523 -40.70669556 -50.63587189 0.189757 -0.973917 0.124410
-48.14516830 -40.72758484 -51.04078674 0.266833 -0.926067 0.266833
-41.77081680 -40.64590454 -50.88641739 -0.001091 -0.992091 0.125512
-45.71535873 -40.68297958 -51.50663376 0.126266 -0.990790 0.048914
-44.38962936 -40.78516769 -52.67383575 -0.036993 -0.992091 0.119948
-47.92937851 -31.50300407 -30.95895767 -0.740878 -0.565021 0.363112
-48.44390869 -30.89129066 -31.32311249 -0.849098 -0.431509 0.304685
-51.56702423 -30.85950279 -36.08806610 -0.857090 -0.358025 0.370424
-51.92426300 -30.18817711 -36.49188995 -0.928748 -0.159650 0.334572
-50.39889526 -30.28233528 -33.58865356 -0.720909 -0.358002 0.593401
-49.67948151 -29.73083115 -32.45031738 -0.738702 -0.391463 0.548703
-48.59138107 -30.20986938 -30.51042747 -0.805309 -0.465895 0.366632
-50.84761429 -29.61648750 -33.94178772 -0.851552 -0.119998 0.510353
-51.60297775 -29.31602478 -35.67031479 -0.936374 0.094840 0.337949
-50.13896179 -29.39139748 -32.78511810 -0.753226 -0.274333 0.597823
-51.53541183 -29.47570419 -35.39770126 -0.946315 0.074400 0.314568
-49.63112640 -29.01252174 -31.62959671 -0.912734 -0.214846 0.347502
-51.29162979 -28.51815033 -35.35591125 -0.885312 0.258278 0.386671
-48.89417648 -29.17203712 -30.45721436 -0.864905 -0.210625 0.455606
-50.99735260 -28.41230774 -34.65807724 -0.895167 0.290445 0.338108
-52.05335236 -27.16278458 -39.84711075 -0.965969 -0.218539 -0.138365
-52.07415009 -27.04076004 -39.90178299 -0.974012 -0.209692 -0.085614
-49.57858658 -27.89335823 -31.53693771 -0.949387 0.034132 0.312248
-49.55070114 -27.79055405 -31.42724991 -0.949663 0.003714 0.313252
-51.10547638 -27.28845978 -35.93357849 -0.908638 0.320438 0.267763
-52.26901627 -26.01326561 -40.43465805 -0.946335 -0.250621 0.204058
-50.85198212 -26.75307465 -35.70997620 -0.895668 0.317433 0.311472
-49.95575714 -27.05133820 -32.77409363 -0.923751 0.279274 0.262088
-50.95203400 -26.25809479 -36.43194199 -0.918203 0.222030 0.328032
-52.59816360 -25.42354774 -40.90980530 -0.893701 -0.376684 0.243737
-50.83808517 -26.27491188 -36.08286285 -0.914416 0.241244 0.325029
-52.28386688 -25.67492867 -40.35973358 -0.930677 -0.247145 0.269741
-51.79122162 -25.36161423 -38.80636978 -0.932535 -0.029666 0.359858
-52.07396317 -25.37712669 -39.55810165 -0.934202 -0.115250 0.337614
-50.16481400 -25.71141243 -34.78625870 -0.907523 0.215663 0.360404
-49.68983841 -25.22199631 -33.74213791 -0.917284 0.117601 0.380472
-50.29230499 -24.97447205 -35.31044006 -0.914378 0.006467 0.404810
-51.44904709 -24.73548508 -37.95703506 -0.913831 -0.052181 0.402728
-51.15499878 -24.28920937 -37.20227814 -0.925197 -0.096177 0.367098
-50.68773651 -24.16693115 -36.00888824 -0.917342 -0.100099 0.385311
-53.13054276 -23.58129120 -40.64025497 -0.776160 -0.231759 0.586398
-51.00541687 -23.15024376 -36.50495148 -0.909387 -0.103811 0.402788
-52.33428192 -22.75596237 -39.15803146 -0.857448 -0.153901 0.491017
-51.62878799 -22.24157715 -37.73379898 -0.893568 -0.011914 0.448770
-52.25668716 -22.52932358 -38.94306183 -0.866720 -0.143727 0.477639
-50.33242798 -22.79124832 -34.88880920 -0.910660 -0.011725 0.412989
-52.02607727 -22.16450119 -38.39083862 -0.900793 0.017145 0.433910
-53.25919724 -21.85284996 -40.53197479 -0.801669 0.138321 0.581545
-53.81848145 -21.90109253 -41.25980759 -0.729145 0.080046 0.679662
-53.23478317 -21.50345230 -40.65218353 -0.736235 0.282676 0.614860
-53.89291382 -21.29162216 -41.44169617 -0.701093 0.206752 0.682438
-54.42708206 -20.26054573 -42.21192551 -0.689700 0.220516 0.689700
-54.77254105 -20.16164398 -43.03938293 -0.987264 -0.019314 0.157917
-54.66736603 -19.28188324 -42.97528458 -0.860229 0.211680 0.463893
-57.28100586 -39.38200378 9.14245605 -0.507777 0.004019 0.861479
-57.04921341 -39.22571182 9.26985359 -0.498524 0.065632 0.864388
-47.73996353 -38.56792450 13.85438442 -0.572130 -0.291643 0.766558
-58.93386459 -39.58853149 7.92292976 -0.630745 0.058641 0.773771
-58.29471207 -39.31385422 8.42742443 -0.609623 0.275365 0.743326
-58.08243179 -38.70348358 8.10451031 -0.548846 0.596132 0.585999
-56.93133545 -38.81728363 9.30207920 -0.517260 0.337900 0.786299
-58.99081802 -39.03866959 7.61301756 -0.536254 0.529530 0.657290
-48.45807648 -37.93189621 13.48156357 -0.558188 -0.087531 0.825085
-60.07359695 -39.20309448 6.73370647 -0.569959 0.345873 0.745331
-56.57269287 -38.38265991 9.18514538 -0.475559 0.603271 0.640240
-56.61707306 -38.28975677 9.07455063 -0.467561 0.668663 0.578167
-53.56511307 -37.98506546 10.60840321 -0.378210 0.019362 0.925517
-61.16111755 -38.83146286 5.89814329 -0.530033 0.191778 0.826006
-50.61328888 -37.86855316 12.07288265 -0.466666 -0.106383 0.878012
-49.36948776 -37.12069321 12.92321777 -0.540989 -0.108778 0.833965
-58.47549438 -38.63092041 7.65033197 -0.524474 0.602049 0.602049
-57.03384018 -37.86227417 8.00784779 -0.410041 0.759639 0.504792
-56.19983292 -38.02116394 9.01331425 -0.399834 0.765397 0.504281
-59.60473633 -38.66655731 6.72577190 -0.529076 0.529076 0.663444
-55.33440399 -37.81632233 9.48501968 -0.497195 0.713366 0.493869
-56.28967667 -37.65805435 8.23218060 -0.347584 0.814205 0.465033
-59.49390411 -38.42032623 6.61606932 -0.513425 0.500045 0.697388
-51.51561737 -36.99655151 11.70055580 -0.440150 -0.117468 0.890207
-52.88607025 -36.72533035 10.96822453 -0.633115 0.029480 0.773496
-56.80815125 -37.53363419 7.62823820 -0.329941 0.795366 0.508460
-51.91260529 -36.07681656 11.67655849 -0.425530 -0.116564 0.897406
-48.51998901 -35.62309647 13.64267731 -0.597084 -0.135498 0.790652
-60.19074249 -37.46097183 5.73330021 -0.435294 0.435294 0.788060
-62.25883865 -37.67067719 4.70213938 -0.674976 0.298020 0.674976
-62.29091644 -37.51093674 4.61081457 -0.629387 0.366458 0.685260
-52.06239700 -35.28378677 11.54558086 -0.680242 0.189727 0.708007
-50.61682129 -34.98821640 12.31116199 -0.412039 -0.080765 0.907580
-52.68361282 -35.48023605 10.50391960 -0.840299 0.480829 0.250400
-58.98923492 -37.01507950 5.92899275 -0.310078 0.740653 0.596057
-61.10351944 -36.94052124 4.77629280 -0.425036 0.641721 0.638387
-54.51025009 -36.70658112 7.81981611 -0.175400 0.748884 0.639068
-60.74186707 -36.83455658 4.90749216 -0.341768 0.753186 0.562055
-56.03896332 -36.55210114 6.78396463 -0.347611 0.713174 0.608728
-51.78543854 -35.00988770 11.71282196 -0.651057 0.159350 0.742114
-59.07279205 -36.42614746 4.73338366 -0.214956 0.946079 0.242339
-49.86903000 -34.29625702 12.73094940 -0.532659 -0.069231 0.843494
-54.48552704 -36.12264633 7.18099642 -0.188572 0.755819 0.627039
-53.65025330 -35.95079803 6.98112011 0.509801 0.573737 0.641037
-43.77895737 -29.38605690 11.62853527 0.315169 0.913554 0.257073
-44.06240845 -29.12749481 11.09954548 0.384768 0.889870 0.245123
-43.23746109 -29.27506638 10.35144806 0.346027 0.933062 0.098288
-23.15916252 -32.85496521 11.47279358 0.518602 0.814500 0.260079
-44.19741440 -28.90727997 10.39210987 0.449306 0.873569 0.187088
-43.76787949 -29.04654884 10.21192074 0.392122 0.909330 0.139140
-46.06248093 -27.71709251 10.69764137 0.549418 0.793604 0.261404
-46.48529053 -27.43726158 10.71499443 0.581852 0.760392 0.288535
-51.04421616 -19.28941727 8.06658268 0.120050 0.772176 0.623965
-46.65507507 -19.79636002 6.25604296 0.514263 0.359500 0.778649
-41.84331894 -20.09572601 2.23881555 0.198918 0.539051 0.818447
-47.33524704 -16.09812355 4.03209686 -0.236343 0.602597 0.762246
-39.29133606 -17.49997711 -1.18580079 0.356441 0.209247 0.910585
-40.32929230 -16.79952812 -1.29177058 0.212813 0.537392 0.816040
-52.78392410 -15.88457680 -9.07181740 0.226392 0.234624 0.945356
-53.80214310 -13.77371311 -8.78671551 0.339026 -0.029425 0.940317
-51.89307785 -12.08277702 6.96741867 0.238210 0.964429 -0.114598
-51.27043533 -12.20236397 6.49479771 0.268196 0.962786 0.033370
-51.75457001 -12.51467037 5.12719297 -0.338737 0.858443 -0.385139
-54.16170502 -14.68906689 4.99039412 -0.671803 0.574634 -0.467414
-50.00361252 -12.40312862 4.89066553 0.276063 0.950884 0.140032
-52.88923264 -13.71987820 4.58665085 -0.605402 0.638943 -0.474595
-50.95991898 -12.83841610 3.51807690 -0.412816 0.827214 -0.381183
-49.76038361 -12.43511105 3.70997930 -0.038010 0.987105 -0.155495
-49.89457703 -12.59827423 3.13779855 -0.211036 0.942074 -0.260691
-51.26046371 -13.13818073 3.30068231 -0.519633 0.734085 -0.437152
-50.37004089 -12.70528698 3.24818444 -0.312621 0.883493 -0.348867
-48.71090698 -12.56191158 2.59925652 0.019101 0.989903 -0.140452
-48.93943787 -12.73991871 2.00318503 -0.204433 0.951765 -0.228803
-48.42657471 -12.73655987 1.56832457 -0.147061 0.970602 -0.190540
-47.59907913 -12.74932575 1.06059611 0.035915 0.985914 -0.163354
-49.29591370 -13.06036854 1.30337822 -0.378468 0.848828 -0.369124
-46.42441177 -13.26622105 -0.77370203 0.114996 0.971776 -0.205981
-46.25991058 -13.35583401 -1.01626635 0.114714 0.971916 -0.205476
-45.23496628 -13.59657669 -1.80645788 0.197981 0.977758 -0.069233
-43.88189697 -14.03004646 -3.45626879 0.212622 0.977134 0.001162
-47.17533875 -15.61382675 -3.59660530 -0.697386 0.554247 -0.454383
-44.12401581 -13.99966812 -3.81586146 0.099909 0.993475 -0.055006
-43.40961456 -14.09365559 -4.45322275 0.032615 0.998444 0.045240
-43.94550323 -14.14354897 -5.45182896 -0.105182 0.982903 -0.151123
-45.35411072 -14.66846275 -5.76511526 -0.457381 0.862276 -0.217444
-53.19426346 -17.67786980 -7.34937000 -0.200609 0.891760 -0.405611
-47.89523697 -15.16867924 -8.42764378 -0.297765 0.868862 0.395493
-55.38800812 -18.89580154 4.52257919 -0.785466 0.618641 0.018073
-53.91575241 -22.57461739 -8.71677113 0.009050 -0.399513 0.916683
-55.31612778 -16.60349655 5.89694643 -0.989393 -0.096725 0.108379
-55.46339798 -16.99246979 5.04855251 -0.998541 0.051020 0.017701
-52.51670456 -21.50825500 -7.23935699 -0.362941 -0.168054 0.916532
-50.27578735 -21.04118729 -5.13283777 -0.078099 -0.053899 0.995488
-51.34508133 -19.76381874 -5.30298996 -0.196541 0.015119 0.980379
-48.96336365 -20.37976837 -5.55642319 -0.956375 0.172067 0.236093
-52.87828064 -19.27107430 -5.95721197 -0.447163 -0.289341 0.846361
-48.69879532 -19.45697021 -4.72383404 -0.937217 0.335580 -0.094925
-53.93140793 -18.50286674 -6.35850859 -0.300438 0.163252 0.939726
-48.73196793 -19.14116669 -5.63441420 -0.891777 0.306222 0.333109
-55.68098831 -18.26115227 -8.07634258 -0.282127 0.451712 0.846381
-55.24095917 -16.67987633 -8.00543213 -0.070034 -0.072257 0.994924
-55.17340851 -17.04570007 -8.01216125 -0.099308 -0.078761 0.991935
-49.55408859 -16.82873154 -5.46134138 -0.222992 -0.332329 0.916423
-52.80239487 -17.24194336 -8.91252518 0.140646 0.104583 0.984521
-55.16399384 -16.01114082 -7.95120525 -0.011565 -0.066235 0.997737
-54.84486389 -15.49991798 -7.92715120 0.306503 0.013650 0.951772
-50.96268463 -15.80458832 -6.00229931 -0.546363 0.034580 0.836834
-55.21550751 -15.35729694 -7.92588758 -0.041446 -0.049948 0.997891
-52.01432419 -15.38996029 -7.26236296 -0.895793 -0.033475 0.443210
-52.31750107 -14.00676537 -8.70141888 -0.958110 0.216605 0.187370
-26.54541969 -24.02842903 -27.35810089 0.809630 -0.585898 -0.034958
-57.39415741 -13.07846165 -24.46533394 -0.027286 0.375505 -0.926419
-57.17418671 -12.92185020 -24.40515709 -0.014153 0.379547 -0.925064
-58.45577240 -13.15567398 -24.41432762 0.001240 0.323658 -0.946173
-58.10127640 -13.25115967 -24.51483917 -0.040358 0.363219 -0.930829
-60.21949005 -13.26218033 -24.60077477 0.155948 0.413477 -0.897060
-54.92258453 -13.71146965 -24.73831367 -0.030379 0.413413 -0.910037
-60.41876602 -13.77696133 -24.80931664 -0.137776 0.320569 -0.937152
-59.85306931 -13.84457874 -24.84333038 -0.031344 0.500145 -0.865374
-55.86352158 -14.20011902 -24.92622566 -0.067080 0.269586 -0.960637
-59.21315765 -14.08515835 -24.98970604 0.138720 0.610068 -0.780111
-56.40269852 -14.52837372 -24.94565582 -0.073065 0.126415 -0.989283
-54.49259186 -14.79449654 -25.57052994 0.154988 0.450479 -0.879231
-55.22485733 -16.43796921 -26.54153824 0.403674 0.347565 -0.846313
-55.18222427 -17.21452904 -26.82144165 0.502637 0.336687 -0.796240
-55.25842285 -17.30014610 -26.91140366 0.404741 0.348484 -0.845425
-51.32146835 -21.41095352 -28.46617699 -0.136144 0.112048 -0.984332
-43.84825897 -21.98150063 -37.36013031 -0.094511 0.984589 -0.147150
-45.84104919 -21.33174515 -34.35527802 0.003337 0.988988 -0.147959
-36.14550018 -25.77374840 -33.70392227 0.793542 -0.088494 -0.602047
-46.03131485 -21.96244240 -38.08206940 0.186031 0.949165 -0.253925
-46.84859467 -21.75884628 -38.13272858 0.336296 0.917300 -0.213226
-48.66024780 -21.20197105 -40.06160736 0.507782 0.839271 -0.194373
-43.14563751 -22.58853531 -40.62107849 0.742828 0.577755 -0.338238
-52.44570923 -19.22072411 -44.50767899 0.599892 0.603272 -0.525540
-20.55755997 -31.38895988 -40.89114761 0.347839 0.898461 -0.267910
-22.28419876 -31.14683914 -41.15915298 0.069798 0.985450 -0.154975
-23.83980942 -31.09352875 -41.30521774 -0.007329 0.997795 -0.065961
-19.87634659 -31.71736145 -42.72494888 0.182296 0.974342 -0.132008
-44.04878998 -25.90998459 -45.64035416 0.357574 0.844749 -0.398172
-45.68492508 -26.01455498 -46.12348938 0.055937 0.727186 -0.684157
-21.12288475 -31.70116615 -43.81891632 0.125439 0.985589 -0.113492
-19.02470016 -32.11897659 -44.22148895 0.213006 0.936949 -0.277047
-47.42334747 -25.94602203 -46.02726746 -0.226939 0.693337 -0.683946
-45.04687119 -26.59893036 -46.78919601 0.058803 0.724282 -0.686992
-48.48689651 -26.46119118 -46.03100204 -0.445050 0.514538 -0.732927
-41.21211243 -27.38807678 -45.68199539 0.486174 0.834985 -0.257749
-40.87268829 -27.69608498 -45.90681458 0.460756 0.832484 -0.307691
-11.41458416 -35.30854416 -42.40914154 0.223518 0.912818 -0.341766
-44.11050797 -26.86057663 -46.90485764 0.148954 0.756807 -0.636440
-40.93345261 -28.00160789 -46.74225616 0.394296 0.780479 -0.485163
-43.04713821 -26.95249939 -46.67830658 0.285718 0.732652 -0.617726
-44.82261658 -26.95223808 -47.08507919 0.029573 0.663286 -0.747781
-27.53143692 -30.45238686 -46.17929459 0.005482 0.992280 -0.123898
-8.20918083 -36.37265015 -43.48844910 0.169627 0.692260 -0.701429
-43.12800980 -27.43573570 -47.24913788 0.247679 0.708330 -0.661003
-46.69465637 -26.85730171 -46.83613586 -0.148717 0.510938 -0.846655
-40.28233337 -28.28521538 -46.47853470 0.487537 0.790036 -0.371687
-16.69950676 -33.74988937 -44.95998764 0.508238 0.682683 -0.525012
-16.03661537 -34.04528809 -44.51404572 0.612194 0.710145 -0.347726
-47.20845795 -27.50965691 -47.02885056 -0.337673 0.334645 -0.879767
-45.85974503 -27.19057465 -47.15293503 -0.107182 0.495895 -0.861743
-42.85442352 -27.54555893 -47.28112793 0.244675 0.711924 -0.658254
-39.05024719 -28.90251350 -46.17658997 0.452490 0.854703 -0.254430
-32.47434235 -30.67370224 -45.79199982 0.037755 0.970656 -0.237488
-38.98676300 -29.03368568 -46.53742599 0.400477 0.855072 -0.329349
-33.48417664 -30.61577415 -45.79117584 0.136709 0.962172 -0.235661
-30.19094086 -30.88392067 -46.79669571 -0.117258 0.939409 -0.322121
-15.64442825 -34.30768585 -44.32005692 0.586142 0.714207 -0.382552
-38.13383102 -29.37608337 -46.48863220 0.331042 0.898117 -0.289476
-38.63839340 -29.21617317 -46.60324860 0.354258 0.877282 -0.323849
-35.93801117 -30.11866188 -46.23611450 0.320565 0.921803 -0.217984
-14.61060238 -35.03227234 -44.39449692 0.499100 0.757650 -0.420553
-42.34403229 -28.13924789 -47.61322403 0.305117 0.657051 -0.689339
-35.96208954 -30.16786575 -46.45646286 0.325890 0.913941 -0.241883
-28.47494316 -30.81454468 -47.29253769 -0.164262 0.922394 -0.349583
-41.69912338 -28.63066864 -47.84996414 0.280154 0.673971 -0.683576
-36.37255859 -30.19260406 -46.95335770 0.298183 0.897516 -0.324886
-41.54776001 -28.70116806 -47.85487366 0.275998 0.684411 -0.674839
-45.51585388 -28.14742851 -47.71339798 -0.213931 0.343152 -0.914593
-40.06404114 -29.06417847 -47.65669250 0.326576 0.767374 -0.551802
-23.28986549 -31.28627205 -48.69670105 0.133644 0.964052 -0.229660
-33.49871063 -30.96823692 -46.89188385 0.156316 0.916771 -0.367554
-28.12588501 -31.11219788 -48.13566971 -0.145191 0.884085 -0.444199
-25.70396042 -31.15596581 -48.80739594 -0.056734 0.867610 -0.493998
-26.45469093 -31.03215981 -48.46271133 -0.053322 0.887339 -0.458025
-46.67721176 -28.58576393 -47.44347763 -0.349583 0.164262 -0.922394
-32.39801788 -31.14099312 -47.12271500 0.027709 0.909111 -0.415631
-36.82418060 -30.28662109 -47.57518005 0.298630 0.846377 -0.440983
-35.48651886 -30.84498978 -47.78551483 0.302317 0.802485 -0.514414
-35.73129272 -30.70052147 -47.70242310 0.284427 0.831521 -0.477153
-35.35440063 -30.73049355 -47.45925903 0.287122 0.858296 -0.425310
-23.17259598 -31.42349434 -49.13796997 0.082640 0.919879 -0.383396
-24.79243851 -31.20128250 -48.91428375 0.041847 0.892290 -0.449520
-16.48486710 -34.10407257 -47.19446564 0.638927 0.769207 -0.009702
-17.86922455 -33.27383423 -48.31369019 0.513409 0.791706 -0.331077
-26.49043083 -31.69372559 -49.32805252 -0.156050 0.695407 -0.701468
-24.73424911 -31.55303764 -49.43967056 -0.004143 0.766514 -0.642214
-23.75366783 -31.89432335 -49.80339050 -0.035313 0.682245 -0.730270
-19.80762100 -32.06947708 -49.94157028 0.353669 0.890887 -0.285024
-45.40219116 -29.12943459 -48.00016022 -0.256971 0.170865 -0.951195
-41.94042969 -29.33914566 -48.45850372 0.090524 0.447048 -0.889918
-28.59429169 -31.59774780 -48.88681412 -0.206420 0.805804 -0.555041
-29.58688545 -31.71849060 -48.65571594 -0.176172 0.814608 -0.552609
-12.63861179 -35.43313599 -47.17488098 0.075148 0.984084 -0.161032
-37.44331360 -30.84571648 -48.56991959 0.278995 0.722200 -0.632921
-17.21298409 -33.97984314 -48.67720032 0.630025 0.688937 -0.358378
-22.56796455 -32.23563385 -50.12176132 -0.055642 0.626334 -0.777567
-14.34342480 -35.27917099 -47.38920593 0.218898 0.959170 -0.179098
-19.82545280 -32.24325180 -50.28075027 0.242251 0.851688 -0.464696
-12.88699341 -35.56613159 -47.58864975 0.097259 0.939280 -0.329081
-34.82316589 -31.58187866 -48.51575089 0.239952 0.806549 -0.540279
-16.08904839 -34.91119385 -48.35990906 0.542305 0.718098 -0.436166
-32.95544434 -32.16956711 -48.75704575 0.078923 0.807886 -0.584031
-21.76284027 -32.72029877 -50.54472733 -0.093446 0.550613 -0.829514
-43.35877228 -30.24661446 -48.66688538 -0.141319 0.161329 -0.976730
-39.15448761 -30.92908859 -49.07370758 0.045930 0.533063 -0.844828
-16.90912628 -34.52628708 -49.05902863 0.597448 0.624375 -0.503202
-34.87744904 -31.65136147 -48.64826965 0.243677 0.808637 -0.535470
-13.11382771 -35.69572067 -47.98205185 0.142375 0.884451 -0.444383
-32.33027649 -32.25885391 -48.72197342 0.032301 0.782239 -0.622140
-15.79634571 -35.23149109 -48.59374619 0.457146 0.744307 -0.486852
-20.49824715 -33.03124237 -51.09436035 -0.278182 0.605642 -0.745528
-8.34881401 -36.73109436 -48.78337860 0.035237 0.652590 -0.756892
-36.00176239 -31.91664505 -49.25497818 0.077031 0.716537 -0.693282
-14.05518818 -35.93561554 -48.65728378 0.199085 0.816095 -0.542544
-7.60546684 -36.57453918 -48.58880234 0.097990 0.618652 -0.779531
-13.62294006 -36.15684128 -48.83601761 0.179077 0.826160 -0.534220
-41.04392242 -31.19307137 -49.02944565 -0.168172 0.052921 -0.984336
-22.82925606 -33.30863190 -50.75633621 -0.133057 0.444953 -0.885614
-18.72245598 -33.39391327 -51.32335663 0.406477 0.830352 -0.381171
-42.07773209 -31.67382813 -48.86388397 -0.169884 -0.083135 -0.981951
-31.81186295 -32.87496567 -49.44459534 0.104839 0.725010 -0.680712
-29.46040726 -33.20234680 -49.71616745 -0.050984 0.486415 -0.872239
-25.40138245 -33.49872971 -50.52012253 -0.151912 0.244380 -0.957706
-6.89725256 -37.43815613 -49.06361389 0.207973 0.382496 -0.900247
-30.85600662 -32.97455215 -49.42029572 -0.070642 0.653075 -0.753991
-35.88019180 -32.15554428 -49.48912811 0.055930 0.681199 -0.729959
-28.05879974 -32.82465744 -49.80704117 -0.177077 0.322085 -0.930003
-13.18510914 -36.30216217 -48.90574646 0.122137 0.810811 -0.572424
-41.24782944 -31.96881104 -49.00276184 -0.172798 -0.045844 -0.983890
-22.32061386 -33.29634857 -50.79709244 -0.184472 0.453063 -0.872183
-14.20475101 -36.05812454 -48.89581299 0.197364 0.797107 -0.570673
-23.23885727 -33.46326065 -50.76197433 -0.145336 0.388033 -0.910114
-33.71440125 -32.77426147 -49.78668213 0.269814 0.840278 -0.470248
-35.33757019 -32.38505173 -49.68830490 0.104650 0.688330 -0.717809
-22.82728195 -33.88394165 -50.99996185 -0.210018 0.369342 -0.905251
-28.03856087 -33.58928299 -50.02654266 -0.089823 0.421479 -0.902379
-12.26900291 -36.68181610 -49.16590500 0.168762 0.749546 -0.640079
-24.45477676 -33.84570694 -50.75477600 -0.123192 0.323549 -0.938157
-34.30234909 -33.18719864 -50.20946121 0.067006 0.588798 -0.805498
-27.97336769 -33.83052826 -50.22831726 -0.009456 0.522792 -0.852408
-37.29165649 -32.43275452 -49.83007813 0.006675 0.489933 -0.871734
-18.92838478 -34.25118637 -52.57445526 -0.055789 0.648009 -0.759587
-33.97312164 -33.39864349 -50.33696747 0.116311 0.593333 -0.796510
-22.58763885 -34.43570328 -51.27385330 -0.294972 0.321653 -0.899739
-32.37804413 -33.41727066 -50.16095352 0.175910 0.647044 -0.741883
-31.04678345 -33.70664597 -50.13843536 0.100860 0.603701 -0.790805
-27.09133339 -34.35890198 -50.43195724 0.114951 0.458384 -0.881289
-26.21508789 -34.17737579 -50.49385071 -0.255095 0.124277 -0.958896
-17.46689224 -34.45557022 -52.60117722 0.244421 0.834722 -0.493454
-24.13882637 -34.42979431 -50.96677399 -0.135827 0.259786 -0.956066
-26.97629929 -34.71755219 -50.72084045 0.186219 0.481191 -0.856608
-39.60783386 -33.15341568 -49.97898483 -0.003979 0.476151 -0.879354
-17.89249039 -34.47548294 -52.71814346 0.152002 0.778068 -0.609512
-29.13574409 -34.90891647 -50.51051712 0.104884 0.512925 -0.852002
-35.01342773 -33.98641205 -50.62380981 -0.093527 0.306927 -0.947127
