28.23126030 -10.14317036 8.32974529
17.87015533 -11.71004868 10.23513699
26.21429634 -9.84367847 7.44446325
29.85382080 -10.81866932 8.34789371
18.98412895 -11.72604370 9.80968094
27.69546127 -10.31325340 7.83120155
22.04861832 -9.60500717 7.80596781
23.13127708 -9.69895363 7.79056311
22.07192802 -9.80903625 7.02521181
22.95409584 -9.92105389 7.14487696
27.01063728 -10.27892780 7.44924259
30.00700188 -11.11198807 8.05363655
30.19851303 -10.95791340 8.25778961
23.63097191 -10.00070095 7.28581190
21.86157036 -9.65138531 7.62867832
27.01261902 -10.55572224 7.03513336
28.24675560 -10.96863174 7.42437124
17.50476074 -12.06226444 10.18606949
23.35373306 -9.94407845 7.26239920
26.35997200 -10.14743805 7.04654980
26.01694489 -9.82699490 7.08934021
27.82805634 -10.64075756 7.56731606
22.46667862 -9.89640141 6.95807123
28.56606674 -11.07551575 7.47775793
30.00820732 -11.44259453 7.66646528
17.40872765 -12.92567062 9.76294613
21.85522652 -9.99792004 6.25456476
22.81454468 -10.08680534 6.55226088
23.60314178 -10.20049477 6.71799564
29.73551559 -11.63269997 7.39976645
23.21915054 -10.10309029 6.74694014
27.76880264 -10.91711426 7.15920353
22.37255669 -10.12607765 6.11325026
27.30670357 -10.95552540 6.74483252
28.70750809 -11.41055393 7.18672085
24.56940651 -10.66832256 6.65372944
24.60475349 -10.80755711 6.35891771
27.49958801 -11.15727615 6.64759493
29.77824402 -11.75367832 7.24166250
20.86586761 -10.02788258 6.05090141
27.26947975 -11.09981632 6.48141956
29.90253448 -11.65461445 7.45188427
22.90353775 -10.36940384 5.68643761
23.77181435 -10.59644794 5.94508028
27.19236565 -11.31982803 5.94844341
29.00140762 -11.73917294 6.86224985
26.59249687 -11.07205677 5.59426117
27.71215820 -11.64642906 5.95286512
23.20107460 -10.43775749 5.77140379
23.32132530 -10.56893539 5.49970484
18.76612663 -11.65638542 7.03254461
18.48443413 -12.12850094 6.93347406
24.55171013 -11.11529636 5.70161963
23.45916176 -10.77499008 5.10671854
18.97070885 -12.01982689 6.58919954
19.72303009 -11.34884739 6.25568390
23.64974785 -10.93257999 4.94156742
23.98094749 -11.07774925 5.10894489
25.38172722 -11.58903503 5.36242723
24.69649506 -11.29494476 5.55008411
25.05408096 -11.78193474 5.10944271
18.76985168 -12.50730896 6.36040926
24.42605209 -11.27538681 5.24001741
24.57715225 -11.22679996 5.54899740
17.63497734 -13.13676357 6.83052015
24.06249619 -11.43913269 4.38386202
17.22490311 -13.12461567 7.00667191
26.33036613 -12.43294716 4.96761513
17.22226906 -13.34665680 6.86816788
18.47934723 -12.91281509 6.35100365
25.98024940 -12.09174824 4.97679901
18.29388237 -13.27537441 6.12916851
25.04524612 -12.30043125 4.16574812
26.01018906 -12.29855919 4.74970770
27.50592422 -12.93876839 5.40190506
16.69206619 -13.47209454 6.96758890
25.58405304 -12.00716496 4.36065149
27.92515564 -13.34409523 5.34585571
25.85404205 -12.32605648 4.46885729
24.56424141 -12.14175129 3.84298134
27.02798653 -12.92052555 5.00765133
27.64325142 -13.36724758 4.99725056
17.79492188 -13.70167923 6.26204062
27.03427696 -13.10346985 4.78306341
16.27966690 -14.02975655 6.58297062
17.01531601 -14.08569622 6.45494747
28.19783783 -13.58308601 5.42598343
25.70657730 -12.65875340 3.95132136
26.79186058 -13.31569576 4.21404696
26.21946716 -12.97317791 4.04100895
27.95378685 -13.58813858 5.05524063
17.58382416 -14.23029804 5.82829189
15.99605083 -14.24315929 6.38135767
16.68588066 -14.57281399 6.10344219
27.53997612 -13.56640911 4.69995260
28.49699974 -14.31748772 4.87543201
16.99106026 -14.58538246 5.95465279
27.97558212 -14.01720428 4.66125679
27.69107437 -14.04392719 4.30878925
28.32342911 -14.31875515 4.69542503
16.06329727 -14.95111847 5.75093794
17.31153679 -14.58032608 5.53242636
15.29181194 -15.12269688 5.84216976
16.80761909 -15.04681492 5.29716873
15.73578262 -15.23623371 5.44936609
33.41981506 -6.76056528 11.89076805
33.75656509 -6.31537485 12.02238560
33.09561920 -6.21747923 12.31104469
33.73773193 -6.10862446 12.17790413
34.08512497 -5.78972483 12.24797440
34.89469147 -5.80824804 11.97277069
33.04795074 -5.73310900 12.65960217
34.61758041 -5.38077927 12.34908485
32.61289597 -8.73841000 10.61457348
32.75361252 -8.98783398 10.34188366
33.03622818 -8.95285320 10.31611729
32.68885040 -9.24164391 10.08981991
33.59489059 -9.05324459 9.91318512
33.31100082 -9.16480827 9.94375801
34.23165894 -8.75390053 9.21703243
33.50307465 -9.50607204 9.46358299
33.14387131 -9.71092987 9.35199738
33.19341660 -10.22338390 9.01593494
35.28884125 -14.91795921 8.33922958
40.12612152 -15.10876560 9.34393501
39.74734879 -14.76654625 9.21567345
39.72202682 -14.14724350 9.19285774
39.34453964 -13.72456646 9.07581711
17.52747345 -9.20264721 10.83184338
18.06980133 -8.43911648 11.34763527
34.28439331 1.06784821 29.68990326
35.31509399 1.96213996 28.75716400
43.65052032 -16.46521378 38.26411438
44.41384888 -16.58433342 37.89038467
20.74576759 -4.00215816 37.92589188
20.94532967 -3.93157983 37.77888870
21.91027832 -4.37605095 36.75949097
21.43678284 -3.97653413 36.74646378
21.27954865 -3.61878037 36.39628983
21.86743736 -3.85293007 36.07600403
21.83778954 -3.73782253 35.95633698
21.54455757 -3.48012638 35.85167313
22.48347473 -3.86810637 35.68626022
22.70044518 -3.34598804 35.03147507
21.43116570 -3.18633413 35.53680801
22.39653206 -3.33264089 34.98356628
21.12116051 -2.61795783 35.10655975
21.60618782 -2.74771357 34.57977295
21.25062561 -2.44854355 34.67381287
21.95825958 -2.63519216 34.35649872
23.73354721 -2.92307901 33.97415543
22.34516525 -2.26329565 34.14254379
22.57350540 -2.16596961 34.01159668
23.73159218 -2.73234582 33.73117447
23.20235252 -2.28042459 33.52939224
21.31981277 -2.10652494 33.75318146
23.99519157 -2.64846683 33.41365814
21.45466805 -1.78685522 33.24400711
24.31524086 -2.67837238 33.21374130
22.64858818 -1.94554150 33.47469711
22.78525543 -2.02170944 33.66667938
23.21303558 -2.10764050 33.19762802
23.68054008 -2.31964874 33.07435989
23.97417831 -2.33096027 32.80388260
24.68313789 -2.44599819 32.53859711
22.76273727 -1.82243264 33.34841537
22.16746712 -1.32191551 33.10254669
23.53605080 -1.79371345 32.33173370
25.38027954 -2.46115184 32.23051834
25.04126740 -2.25342870 32.01257324
25.58938408 -2.52179003 32.20095444
25.34126854 -2.22508049 31.82316017
22.23502541 -1.07723951 32.61727142
22.68868446 -1.39332426 32.67381287
24.53386307 -2.02984071 31.88961029
23.08131790 -1.17338896 31.79442978
23.62713432 -1.61212385 31.90529251
24.30661011 -1.88040566 31.81219292
21.73718071 -0.87430835 32.28162003
25.46990395 -2.08484578 31.47212219
25.30518532 -2.08719730 31.61346054
22.56304550 -1.09143829 32.22270584
22.42076111 -0.96432430 32.23626709
22.60318947 -0.84501076 31.71496201
26.21545792 -2.17520022 31.26491928
23.21363258 -1.03953648 31.46749115
23.52301788 -1.45819855 31.77636909
23.06507111 -0.96979332 31.45756531
25.25848389 -1.58342469 30.91805649
23.62616539 -1.12400150 31.26385498
24.65495491 -1.51817608 31.06653023
26.48278236 -1.67513371 30.42899513
22.81025696 -0.59962249 31.24484062
21.67526054 0.15920871 31.62042427
21.44894600 0.02729730 31.96368408
25.57894897 -1.59483075 30.74440193
23.72242737 -0.69062090 30.71759987
23.77111053 -0.98613322 30.99262619
24.94849586 -1.23884106 30.61588097
25.99530792 -1.55183232 30.49888229
21.88470459 -0.02975686 31.52645874
23.93007088 -0.84930533 30.76129723
22.03119278 -0.01063721 31.36875343
25.28369904 -1.06613970 30.32401466
23.30144882 -0.65664363 30.91284370
24.88984871 -0.70285159 30.22285080
24.31178474 -0.37985763 30.23830032
24.15764618 -0.30647993 30.25624847
22.44982147 0.66274703 30.61475372
23.67214012 0.16466422 30.16953087
25.08688736 -0.12726054 29.72651291
22.32287979 0.80876535 30.63242912
25.61453629 -0.42822543 29.75280190
24.18857193 0.10496075 30.00158501
23.52142143 0.39108241 30.09937096
24.10653305 0.37151757 29.82743835
24.65377045 0.39339966 29.44055748
26.86328506 -0.77411675 27.19771576
28.11271286 -0.60291702 26.88210487
22.43868256 1.03276539 27.56307220
22.76305199 1.13978100 27.21211243
26.08526421 0.13627973 26.63103294
25.77931213 0.16655420 26.66996384
26.57456398 -0.23562613 26.75685120
24.93598557 0.46622142 26.70956612
28.22376251 -0.05293095 26.43095207
24.85895729 0.69720566 26.56919861
26.68379593 0.30916601 26.43208694
27.39513016 0.64067864 26.13840866
22.54954147 1.91302669 26.72906494
22.87031364 1.43168378 26.92132759
28.71667480 -0.18055904 26.54409409
28.77371979 -0.01318440 26.43118858
29.68551254 -0.08983407 26.55455208
24.29647446 0.97047925 26.56807327
24.54887199 0.95495462 26.48233795
27.83432961 -0.02253072 26.46468353
24.16132927 1.46022010 26.28676414
28.90627670 0.99270034 25.80404472
23.09910393 2.00210404 26.38009644
30.10790634 0.77602386 25.93454742
21.94528008 2.41581917 26.66114235
24.29800987 1.77075207 26.07485390
22.94573593 2.28131890 26.27086830
23.49083900 2.49858928 25.85713959
22.33095169 2.81078386 26.20495224
23.30786514 2.13376570 26.18067932
24.12661934 2.31578398 25.72557259
24.24343300 2.17926621 25.76252365
23.01305962 2.86255980 25.82513237
23.63959694 2.71871638 25.60523605
24.50542450 2.46507692 25.47233772
24.89844513 2.39925694 25.49258423
42.74569321 -14.87721252 40.24312973
43.62207794 -15.47268391 39.81402588
56.08797455 -9.39800644 33.12482834
45.40115356 -18.06093979 36.67525482
45.08573914 -18.12030792 36.97603226
56.59739685 -10.01354694 32.76374435
43.66862106 -19.47167397 36.87530136
43.43978119 -19.47366905 37.09972000
45.22191620 -18.50273323 36.45093918
44.36399841 -19.29023361 36.42760468
49.33511734 -16.41468620 35.50759125
44.89579391 -18.77311134 36.42831039
43.13043213 -20.00482559 36.87221527
49.52695084 -16.63100624 35.33925629
42.54170609 -20.44926834 36.99017334
44.94707489 -19.13427353 36.09003448
42.39139938 -20.64423370 36.92168427
45.82302856 -18.67329407 35.84145737
44.08482361 -19.88102150 36.05575943
42.92691040 -20.55526733 36.48807144
40.47507095 -22.62847137 37.43177795
40.77950287 -22.54154968 37.45983887
43.14226151 -20.78425026 36.03617096
41.97798157 -21.34973717 36.55990219
43.37366104 -20.60685539 35.97502518
42.18403244 -21.23467827 36.43150330
45.45989990 -19.27727127 35.60325241
45.88929749 -19.43888283 35.11315918
46.09927750 -19.26837921 35.10685349
45.07754135 -19.65734863 35.56940460
44.78638077 -20.07781410 35.29486847
44.77853775 -20.12508011 35.25625229
43.83409119 -20.51540565 35.69428253
40.06837082 -23.22001648 36.68870163
45.63306808 -19.87760353 34.94201279
42.60680389 -21.64942932 35.57496262
45.91358566 -19.74177170 34.83539581
42.40653229 -21.45982170 35.92920685
43.18507004 -21.18421364 35.58983231
46.52968216 -19.89370537 34.20246887
42.31704712 -21.73748398 35.72648621
45.95733261 -20.10353851 34.44218826
45.10446930 -20.25550270 34.76234818
41.95265579 -22.41877937 35.34418106
41.60097885 -22.75460052 35.39606476
42.43332672 -22.02852631 35.31680298
46.45046616 -20.11572456 33.92911148
46.83175278 -20.12831879 33.59156418
41.78746414 -23.08333015 34.66440964
42.36365128 -22.95273972 34.24997330
46.69955063 -20.69329262 33.10326767
45.81222153 -21.33663368 33.12569809
42.03990936 -23.48907852 33.81332397
46.30851364 -21.02795410 32.92995453
41.50859833 -23.65213966 34.20401001
42.58086395 -23.36860085 33.53504181
58.51480103 -12.82186317 26.32733536
58.42113876 -13.69283581 25.46598053
62.55706406 -38.13185883 63.92725754
62.78969193 -38.45711136 66.32064056
62.00770187 -37.63928604 63.61285400
62.28154373 -37.77846527 63.93208694
62.79855728 -38.37872314 64.12054443
43.54640198 -38.23023605 65.39144897
37.77179337 -19.79583740 46.58309174
38.34082413 -21.81228828 42.99155045
39.98175430 -20.70507813 40.28822327
40.02362823 -20.29767609 40.83891678
37.92132187 -20.15156174 46.17368698
43.64097214 -1.45442736 35.52669144
42.52686691 -0.25832275 34.48688889
35.86355972 0.47274110 31.02233315
35.92323303 0.79143524 30.61872673
35.66479492 0.72966099 30.52280807
36.31981659 0.68638885 30.93088150
37.32444382 0.87415195 31.07492065
36.42856216 1.04493535 30.44095993
37.00159454 0.98347628 30.78363991
37.20623779 1.24731469 30.53956795
37.81618881 0.85572797 31.39950180
36.12878036 1.13303566 30.14017296
36.17696762 1.42960954 29.72840309
37.98700333 1.32367349 30.87378693
36.32085800 1.26967335 30.02433586
38.34809875 1.05532861 31.40642929
38.35503387 1.56742215 30.76404762
36.71360397 1.51131737 29.94289017
35.56875229 1.05719745 30.00562668
37.38824081 1.23968422 30.64805222
38.84011459 1.35428476 31.30121613
37.75928116 1.66343236 30.33749199
38.98229218 1.76973498 30.74884987
36.28739548 1.48892677 29.74626732
36.38988495 1.73469830 29.58447647
36.27024078 1.96916878 29.10729218
37.42481232 1.75977051 29.87874413
39.21942520 1.71700311 30.94981575
34.13115692 3.22402120 30.58736801
35.05418777 3.57003331 30.59073257
34.89367294 3.93818760 30.72644806
35.77018356 3.75175500 30.52563286
35.98737335 4.25900364 30.72085762
35.19317627 4.40300179 30.80256653
35.87948990 4.96811819 30.79493523
19.30715561 -11.18205738 40.39345169
19.74130249 -11.65073013 40.69176483
19.66109657 -11.24174023 40.40517426
20.07232475 -11.40967369 40.67963028
25.42765427 -11.67912006 42.52445221
21.60163879 -11.32561779 41.15744019
21.30622292 -11.07483387 40.82288742
19.68238258 -10.89464664 40.21393967
20.29665756 -11.10109520 40.87246323
20.75607300 -11.09463978 40.82422638
21.39660454 -10.90394497 40.63337326
20.79532433 -10.78274822 40.47688293
21.81290436 -10.46134186 40.29569244
20.08228874 -10.61667824 40.08105087
20.48129654 -10.17574406 40.02713394
19.71743011 -10.59892082 40.06496429
19.37110901 -10.19159508 39.84068298
21.28185272 -10.27815151 40.09215927
21.97019386 -10.24144840 40.11346817
24.93043137 -10.34343433 40.76486588
21.61645889 -10.06095982 39.95014572
19.48468781 -9.66425037 39.64447021
20.73806953 -9.93744850 39.87820816
24.75600433 -10.14591408 40.50355911
19.76338959 -9.94479084 39.72376251
20.82321930 -9.67945480 39.71044540
21.75477600 -9.73853588 39.69636154
20.36837578 -9.08829498 39.39173889
21.50901604 -9.65512943 39.63117218
22.07282829 -9.12072086 39.29187393
21.08920670 -9.16232109 39.38879776
22.34215546 -9.14226627 39.25559998
21.86379814 -8.90182877 39.16814804
20.27104759 -8.35814285 39.13837051
19.95734978 -8.45537186 39.18170929
22.64367485 -8.89970779 39.05361557
23.57446289 -8.83235359 38.94977188
21.26488495 -8.47548676 39.07554245
24.26577377 -8.65003014 38.81805420
20.34305000 -8.07901859 39.04409027
21.18491173 -8.04162979 39.01850891
27.93611717 -8.77063847 39.95830536
19.70944214 -7.83934641 39.02175140
22.45451927 -8.34992313 38.72004318
26.09349442 -8.69437504 39.25643539
26.52488136 -8.53211021 39.18909073
27.09584808 -8.77374363 39.65784836
28.72418976 -8.86844349 40.35627365
24.43104172 -8.30886745 38.52820206
28.60083199 -8.86708260 40.32395935
29.55013275 -8.82689762 40.48553467
30.77346802 -8.76080322 40.77335739
31.07119560 -8.73572731 40.85076523
31.15218925 -8.89420891 41.13588333
31.89085960 -8.58230400 40.85940552
31.74220657 -8.92629719 41.41458511
32.19510269 -8.88254929 41.60107803
20.51881409 -7.66694212 38.85641098
25.36179161 -8.51469040 38.86680222
27.51417542 -8.64699650 39.65025330
28.73800659 -8.36325741 39.62705231
30.33513641 -8.51548576 40.23943329
23.95703888 -8.24872398 38.40369797
29.06162834 -8.55914783 39.99444580
29.71393585 -8.59672642 40.20836639
30.38734627 -8.42999077 40.11701202
30.64272690 -8.72040749 40.65633011
22.58456230 -7.89966917 38.47742462
23.25907898 -7.74181890 38.24521637
28.23336792 -8.13477421 39.09962082
28.40134048 -8.25214577 39.32535172
26.83994675 -7.86087561 38.39891052
31.14618301 -8.39161682 40.29065704
24.46985626 -7.86051035 38.33930206
27.32822037 -8.38389683 39.15860367
29.44305801 -8.03042793 39.23964691
29.56010437 -8.11529064 39.39855576
29.95831299 -8.06266499 39.43837357
30.45120049 -8.27421761 39.89562225
22.47955894 -7.65478373 38.37345886
28.94422913 -8.05092525 39.13053894
30.70348549 -8.08646011 39.67261124
26.22553253 -7.75697279 38.22375870
30.47505951 -7.96143913 39.41491318
24.33121300 -7.31507444 38.32166672
31.30582428 -7.94431639 39.54597092
23.32704735 -7.52356529 38.10492706
25.28663635 -7.51461935 38.24741364
24.98771667 -7.48244953 38.33068085
31.79944801 -8.23024559 40.22707748
28.74724007 -7.79821587 38.67607880
30.39359283 -7.85100794 39.22035980
23.34589767 -7.27570534 38.01892471
27.48896980 -7.38026810 37.94705200
27.48864174 -7.62661552 38.23798370
28.13846588 -7.44929504 38.11347580
30.13551903 -7.80808687 39.11194992
30.31804085 -7.69826794 38.97253799
23.35501671 -6.84233713 38.23437119
24.09407234 -6.86059189 38.28252029
26.51023865 -7.30147600 37.85884476
28.88869476 -7.18560457 37.89351273
30.01067352 -7.58767748 38.79161835
31.08945847 -7.59506702 38.96038437
25.34817886 -7.14570141 38.18253326
28.85648918 -7.77244759 38.65967178
30.24027252 -7.45834875 38.64782715
23.17538643 -6.83014202 38.21435165
23.99725151 -6.72062635 38.29780960
26.14834595 -7.17203188 37.94076538
28.77604103 -7.92501926 38.84491348
31.52042198 -7.32638597 38.68694305
25.12085915 -6.75862503 38.18318176
27.56943893 -7.26918459 37.91133881
29.57446289 -7.26445961 38.11045837
31.88129234 -7.54333258 39.04233551
24.50448990 -6.75172901 38.26311111
24.75882149 -6.74862289 38.22742081
28.02005196 -6.94359541 37.85972595
29.04155159 -7.10054827 37.81546402
30.85528374 -7.47882271 38.77166748
30.60234642 -7.40728998 38.58758545
22.39412117 -6.18861961 38.32720184
31.78267288 -7.28147125 38.64957809
23.21260262 -6.48635864 38.30728149
29.98743248 -7.10919380 37.95178604
30.20344734 -6.99842644 37.67450714
20.58398247 -5.99578333 37.84936523
22.00702667 -6.00683975 38.31438065
22.66141891 -6.18687725 38.33249664
28.36978340 -7.10389662 37.85958481
31.57699776 -7.16845512 38.44776917
20.75068665 -5.77655125 38.01576996
29.42927361 -6.84719992 37.56636810
30.83172035 -6.70689583 37.70592499
31.76387024 -6.80425549 38.02275848
22.01396179 -5.78397560 38.28588486
27.24629021 -6.58278131 37.37516785
29.94707870 -6.79203796 37.43994141
27.89604187 -6.41924715 37.22791290
29.55214310 -6.41968203 37.23088837
27.41783905 -6.06150055 36.74944305
28.04547691 -6.12867212 36.84615707
28.38458633 -6.20418024 36.92464066
30.33863258 -6.37917805 37.27031708
27.45311737 -5.97685575 36.65536880
29.06060982 -6.31146812 37.11063385
20.79648018 -4.82374430 38.31679153
30.08153152 -6.18053770 36.95634842
28.00093460 -5.59138632 36.23314667
20.51720619 -4.43167019 38.08514404
28.92150116 -5.88744307 36.63313293
29.55113411 -5.84414339 36.72387314
27.68803406 -5.59382010 36.25884628
29.73074913 -5.76858807 36.74127960
30.02072144 -5.53026342 36.96790314
30.99836731 -5.78111315 37.12753296
31.67223549 -5.76064873 37.21969986
20.71179581 -4.57169199 38.19936371
30.81658363 -5.73554325 37.11529160
31.66625977 -5.66930723 37.25205994
29.30164337 -5.40236759 36.79690170
25.76390839 -5.25165987 36.07887650
27.34500122 -5.35121298 35.98893356
28.72252083 -5.34345007 36.46961212
29.63826370 -5.26109695 36.88713455
33.02797318 -5.74865866 37.14796448
26.33871841 -5.22105837 35.91422653
28.01231003 -5.18116093 35.95889282
31.59619141 -5.45761347 37.30333710
26.90851021 -5.05778503 35.73548889
27.26563072 -4.84064388 35.49641418
28.80339432 -5.06857634 36.52689362
26.22936058 -4.64659214 35.37029648
28.61539650 -4.84874630 36.39404297
32.72710800 -5.19816875 37.13520813
27.74691010 -5.11813259 35.78024673
27.72321701 -4.56463099 35.81361771
26.58031845 -4.59907722 35.26165009
26.95010948 -4.39293194 35.05489731
26.87906647 -4.18144894 34.87711716
25.88193893 -4.18557835 34.78300476
26.24211884 -3.99024725 34.50322342
26.31029892 -3.76708102 34.22371292
26.64181137 -4.02733183 34.54266739
26.89272118 -3.98685646 34.69894791
27.33838654 -3.80743361 35.13803482
26.66992569 -2.95385528 33.45313263
33.54335785 -0.73127657 30.63685226
32.85444260 -0.89683151 30.55426216
33.50857544 -0.40713879 30.12441444
32.80501556 -0.53692013 29.84943771
33.50010300 -0.34103903 29.97173119
32.92338181 -0.07631023 29.17717361
33.09560013 0.03016977 29.08718872
33.30245209 -0.12987916 29.52867889
33.28718567 0.44486561 28.76853752
33.58751297 0.41002864 29.09086227
34.02290726 0.69376010 29.69672966
27.84442902 -17.49240112 55.08258057
31.50312614 1.23039031 30.18374062
33.00420380 2.21891809 30.52580452
29.16442871 1.63880575 25.59794617
32.95692062 2.24468637 30.54873276
32.16673660 2.84481335 30.61411858
26.58958244 2.29378915 25.73545265
33.17609406 2.56872463 30.60756111
26.44200706 2.52043724 25.67119598
33.75949860 2.49160266 30.40568733
27.58600616 2.72017813 25.29162216
29.11737251 2.75120974 25.18839073
28.02634239 2.91025615 25.12580872
27.85809135 3.20744944 24.76393127
28.66992950 3.24982142 24.89226151
29.33016968 3.33286119 24.96541786
28.03857613 3.34553742 24.60995293
29.28814316 3.26212859 24.99641418
29.78758812 3.15038610 25.08100510
27.90433121 3.42751503 24.30464172
28.55633736 3.61227632 24.38984680
19.01767540 -23.98062897 35.97279739
16.22410583 -23.95731926 34.67750931
16.22333908 -23.88757706 34.75981903
19.35154152 -24.03442001 36.05821991
15.56421661 -23.74048615 34.79066086
15.90419579 -23.80369568 34.78626251
16.96320915 -23.86918068 35.05077744
15.03623009 -23.57574463 34.94149399
18.27983284 -23.55665588 36.17789078
16.26026344 -23.53587151 35.24387360
17.84084320 -23.46822739 36.17624283
18.62340164 -23.49816322 36.42646790
16.62430954 -23.32038879 35.58297729
17.99342155 -23.46807098 36.22468185
15.96220875 -23.30727005 35.41082001
19.92972946 -23.29122925 37.37905502
18.43564796 -23.35962677 36.51573181
18.00109863 -23.01149178 36.85072327
15.58060741 -22.77249718 35.88653946
19.13593292 -22.63528633 37.83520508
17.63806534 -23.07400513 36.58550262
20.04417038 -22.74036598 38.17652512
17.42373657 -22.58089828 37.10126877
16.47030640 -22.51901245 36.53290176
18.02272224 -22.38581276 37.70523071
18.91414833 -22.57574654 37.81986237
15.70167637 -22.53487587 36.15771484
17.18198586 -22.40521240 37.27473831
18.56593704 -22.24551582 38.07101822
19.11668015 -22.21837425 38.33286667
19.53893471 -22.47816086 38.23263550
16.05812836 -21.97351646 36.82510376
17.40426636 -21.71797180 38.34263611
16.37987518 -21.58477402 37.27192688
15.89283085 -21.33128166 37.26939774
16.50082207 -21.54957581 37.36851883
17.70664978 -21.29313469 38.94238663
16.43523216 -20.86523628 37.88209534
17.92037964 -21.19893265 39.19615173
16.46762085 -20.71808434 38.01573563
16.74128342 -20.66512680 38.19403839
17.73626137 -19.63777351 39.10082245
16.48567772 -19.13306236 38.99903107
17.34762001 -19.17434883 39.28742599
17.59470940 -16.36705780 40.61101151
18.64702225 -16.79647255 40.57296371
18.60438538 -16.28606606 40.89488602
18.27438354 -15.96994305 41.03311920
18.47081566 -16.01719475 41.05841446
18.87150955 -15.72642231 41.34095383
23.40613174 -27.10139847 32.63111496
22.52940369 -27.24559784 32.06142807
22.10554314 -27.08300209 32.09347153
21.63973999 -26.99814796 32.07966995
22.08007050 -27.36649323 31.51639175
20.49562645 -27.06807327 31.61903572
19.19813919 -27.19588280 30.79614639
21.41653633 -27.64714432 30.62514687
19.86972618 -27.39369202 30.65225983
20.04757309 -27.51060677 30.49310493
20.55470276 -27.64062309 30.39820671
19.62619019 -27.66196251 29.94881248
17.37462425 -26.83166885 30.30641556
18.84527969 -27.32467079 30.32180214
18.76201820 -27.37110329 30.15342331
18.10746384 -27.18188667 30.21746254
15.50285244 -26.22546768 30.01881790
17.47470665 -27.09041214 29.92214584
17.56090355 -27.17322731 29.84792328
16.88912582 -26.84059525 29.88963890
18.31033134 -27.53209877 29.51052094
19.59543991 -27.76716232 29.62220573
15.12527275 -26.30154037 29.55913925
15.04254723 -26.30937958 29.44220161
15.58506012 -26.41261673 29.57432175
17.91580200 -27.61652374 28.92687416
16.63158798 -26.95084572 29.24687958
16.71826744 -27.05767059 29.10554123
17.09176445 -27.29691887 29.04700851
16.01909637 -27.07773018 28.50658417
17.52640343 -27.65251541 28.43540573
16.46353531 -27.28741455 28.45779800
15.08259106 -26.70893669 28.17930412
16.03530502 -27.29931450 28.05854416
15.00177574 -26.79427528 27.75335121
15.94935799 -27.39832115 27.45863724
16.51405525 -27.65569115 27.26375198
15.77327156 -27.35038376 27.41129303
14.85725880 -26.75702095 27.60391426
15.95735359 -27.56715965 26.83145714
15.40989590 -27.10424614 27.33549118
15.69149780 -27.60151863 26.54661942
15.41728497 -27.51252556 26.25869370
15.52886772 -27.57305527 26.39552498
15.29248428 -27.29816246 26.17527008
16.00496483 -28.05580902 24.56287384
44.04730225 -39.16364288 64.33452606
45.07361603 -38.74851227 65.12106323
45.14429474 -39.08443451 64.82361603
21.02625656 -40.16474915 58.07838058
33.78915024 -39.15748596 60.98246384
27.67590523 -39.04202271 60.48177719
33.27493668 -39.00137711 61.09484100
37.97914505 -38.95349503 62.95932770
32.66174698 -39.20090103 60.78236771
38.40311813 -39.00184250 63.14656067
39.23469925 -39.21169281 63.34240723
29.71851349 -39.28075409 60.38939285
39.09973907 -38.88500595 63.61432266
31.27536011 -38.89907837 60.82076263
29.44353676 -38.61965942 60.71495438
39.11061096 -38.68423462 63.76965714
28.08622742 -38.90205765 60.54677963
27.55974770 -39.26188278 60.38170242
28.98113632 -38.93796921 60.55573273
28.29165840 -39.03524017 60.49804688
29.20800400 -39.07546997 60.52133560
33.78590012 -38.33542633 61.63732147
48.80339432 -38.22288132 68.44053650
60.42181778 -38.88623428 76.07707214
49.17429352 -38.29762268 68.60900116
49.21429825 -37.39304733 69.14425659
45.30053711 -36.95364380 67.11589050
42.72800827 -36.85916901 66.24349976
61.04039001 -39.02408600 76.32444000
60.81386566 -39.30736160 75.69901276
60.42283249 -39.40151978 75.48493195
58.71871185 -39.08856964 74.92465210
53.43302917 -39.30702591 72.52396393
53.10721207 -39.09215927 72.66094208
52.30401230 -38.82910919 71.89944458
52.47684479 -39.07246399 71.78276825
51.98166656 -39.00485229 70.97998810
51.52361679 -38.88619614 70.52806091
51.41548538 -38.84793854 70.45816040
51.41331482 -39.13652420 70.01861572
49.95258331 -38.66126251 68.94129944
50.55216980 -38.98466873 69.13918304
49.94766998 -39.04275894 68.53939056
49.43218231 -38.79380035 68.37876129
48.45076370 -38.41951370 68.10303497
47.58172989 -38.16162872 67.78401184
46.99434662 -37.86901855 67.60050201
47.14734268 -37.80721283 67.76263428
49.19628143 -38.83438492 68.09798431
49.41744995 -39.05131531 67.77956390
48.82845306 -38.90177155 67.56250763
47.86634064 -38.50985718 67.47740936
47.11141205 -38.47688675 66.88255310
47.78969955 -38.85490799 66.76310730
47.53107834 -39.02490234 66.35562134
45.16005325 -37.96416473 66.32656860
45.95910645 -38.60519028 66.03703308
44.38045883 -37.98710251 65.74878693
45.76948929 -38.69479752 65.73784637
45.09526062 -38.49133301 65.44046783
45.70985794 -38.72866058 65.62068176
43.56044769 -39.00525284 64.35688782
41.70059586 -39.02460861 64.34206390
41.37904358 -39.26029587 63.87574768
41.51828003 -39.10087204 64.15782928
21.22275543 -26.07752609 54.05264664
21.98980141 -27.22050858 53.80823135
21.80973244 -26.69678879 53.70437241
22.23810005 -26.96690559 53.11377716
22.23347282 -26.68124962 52.85920715
22.15681267 -26.22630882 52.59838867
20.97702217 -21.83525658 51.72645950
22.58376503 -26.95292473 52.40592957
22.61551094 -27.33009338 52.70869446
20.86275673 -21.66445351 50.88576889
20.93144989 -21.73362923 49.70760345
20.65818596 -21.36619759 51.51060104
20.75290108 -21.45701599 49.65509415
20.88992119 -21.55838585 49.27944565
25.33074951 -23.60096741 45.66559982
22.64461327 -15.05448818 43.89582062
25.24082756 -23.33717537 45.58064651
25.23655128 -22.87329483 44.99892807
21.16381073 -14.80229378 43.02408218
25.85167503 -23.57803154 44.44046021
25.39752579 -22.77573776 44.18430328
25.58797455 -23.14733887 44.23649979
25.19241333 -22.37263870 43.47110748
25.10598755 -22.21754837 43.30879211
24.65017319 -21.23352051 43.54450226
24.76528549 -21.48566055 43.65373611
25.79125214 -23.16587257 42.96521759
24.85099220 -21.57137108 42.77522659
26.36232376 -23.62732124 42.44938278
26.17729759 -23.48145294 42.52794647
25.37588310 -22.80496979 41.93748093
24.96538544 -21.97502327 42.30464172
24.51363945 -21.70520210 41.89068985
25.73573112 -23.15956497 41.74408722
26.43229294 -23.67988014 42.23780441
26.23736763 -23.52389717 41.53439713
24.98060417 -22.69769096 41.45996857
24.56970787 -22.38911057 41.47811508
22.29273796 -21.51824188 41.38299179
22.91351128 -21.81329536 41.13306046
26.75398064 -23.86123276 41.36944962
21.49361229 -21.30041885 41.23569107
25.18455696 -22.99027824 41.17237854
24.67686272 -22.75593948 41.13290024
24.10718155 -22.15306473 41.39352036
27.12485123 -24.08619881 41.46870804
23.11710358 -22.09329033 40.72645569
22.03186607 -21.65166092 41.04815292
22.27916527 -21.83472633 40.70470428
27.21265030 -24.17270851 40.93516159
25.13682556 -23.33444595 40.48496628
24.66786957 -23.02218819 40.60997391
23.76009941 -22.99562073 39.95343781
23.11608124 -22.67638397 40.02186203
23.34330750 -22.50650978 40.38074493
22.54936028 -22.37296486 40.01950455
21.96078873 -21.97290802 40.28334045
24.63097572 -23.25755119 40.12932968
27.18889427 -24.34825134 39.99631500
26.69318771 -24.15311050 40.01366043
25.59570122 -23.61626244 40.26065826
24.08012962 -23.37263680 39.59312439
26.17388725 -24.07477570 39.74483871
23.04611778 -23.21640205 39.37852859
22.98275948 -23.43372154 39.09790802
26.09732246 -24.24155426 39.27605438
24.48528671 -23.76142502 39.21726608
24.34509087 -23.72770309 39.17063904
26.98498917 -24.41963387 39.45418930
26.65122795 -24.38365364 39.28454590
26.24794960 -24.40151405 38.94337845
24.77316856 -23.85963440 39.14671326
23.66701889 -23.80039787 38.79409027
25.99835777 -24.38686752 38.79629517
25.96982956 -24.44782829 38.58471298
22.89981842 -23.59145546 38.74493790
22.94786072 -23.55154800 38.90191650
23.72320175 -24.06808662 38.45321655
25.07309341 -24.23380852 38.56288147
22.34517288 -22.86291504 37.74293518
26.25370026 -24.59604454 38.38113022
25.71126938 -24.45447540 38.35983658
25.25871277 -24.50623322 38.03034592
25.28291702 -24.67315674 37.61300659
24.49662399 -24.53330803 37.51342392
22.81608391 -24.39384079 37.34514618
23.20130539 -24.63343430 37.20441818
25.41979218 -24.86034393 37.18231201
23.21549988 -24.71810532 36.87331390
25.82418823 -25.12860298 36.72811127
25.16334724 -24.77846336 37.13934708
22.98514938 -24.77933693 36.57638550
22.72096825 -25.00782967 35.97877121
15.86245346 -25.73590469 15.79051018
25.03849792 -2.08749866 18.19849968
24.57596588 -2.10421467 18.07995033
24.31916428 -2.30257916 17.79856491
24.13395119 -2.34406042 17.72182083
24.41673851 -2.08932471 18.09752274
25.87793159 -2.17722678 17.98139191
25.81602478 -1.92091715 18.42804527
22.86887932 -2.08963680 18.00905037
20.85615730 -2.23689485 17.27698898
23.40518188 -2.38204193 17.70671654
24.17519379 -2.50991344 17.55344772
25.27048683 -2.64634395 17.28045082
25.63814926 -2.25822449 17.88690758
22.51744270 -2.53644848 17.40552902
24.98141670 -2.70244312 17.22603226
24.06001854 -2.77917385 17.44099998
20.62408447 -2.37998629 16.93858337
21.35406494 -2.40878963 17.26651573
22.72171211 -2.71167445 17.20180321
23.24979210 -2.92507768 17.35175896
24.98546791 -2.82685518 17.01676369
23.58517647 -3.04560661 17.40446091
23.52049828 -3.21592283 17.20157051
20.71170807 -2.77370143 16.50787926
21.80223846 -3.19991398 16.32035065
22.05194473 -2.79552698 16.97859001
22.36080360 -2.89856696 16.88950157
22.64784241 -3.17709875 16.62409592
25.62790489 -3.13270307 16.60972214
22.20838928 -3.22599339 16.40365219
22.99216080 -3.39186954 16.58286858
20.02496338 -2.74996662 16.08059311
24.06189346 -3.18177581 16.67776871
20.96236992 -3.29711962 15.90975571
23.64696312 -3.58579421 16.47925377
26.20255089 -3.02886319 16.68893051
21.74592400 -3.18996930 16.31428909
20.43374634 -2.99761391 16.03994942
20.70049286 -3.11295891 16.00965500
19.71131706 -2.76023650 15.68617153
19.62650108 -2.72083592 15.61518860
21.04272652 -3.13584542 16.20359612
22.47161865 -3.45787120 16.16772461
22.69100761 -3.35741043 16.37105370
20.98121262 -3.55053067 15.59070587
21.92525291 -3.48119903 16.01150513
22.11868477 -3.70000267 15.80386162
19.87010193 -3.24918103 15.10402775
25.77932358 -3.54936552 16.08434105
21.48920631 -3.65084648 15.65881634
24.60547829 -4.04752398 15.77125168
23.24844360 -4.02806854 15.98421574
20.59708214 -3.74602938 15.07155991
22.76379204 -4.05397749 15.40385818
19.97685814 -3.66823053 14.58437538
24.05558395 -4.36297512 15.79621220
24.22897530 -4.28188324 15.71224499
26.41879463 -3.98467302 15.46894264
22.04459953 -4.05703163 15.30411625
24.93697929 -4.17219353 15.08483410
21.80508041 -4.31058884 14.86830807
24.41071701 -4.22872829 15.48160553
22.86748123 -4.17254210 15.24915218
25.46378517 -4.20090723 15.05818176
26.43440819 -4.13362741 15.24003601
21.31520271 -4.00401926 15.08473969
23.94392395 -4.61564016 15.21312904
24.47786903 -4.48969269 15.02084923
21.03412056 -4.29881620 14.48808861
22.73812485 -4.29847527 15.06439590
21.74443817 -4.47700262 14.58635044
26.15394402 -4.57875586 14.72242737
26.23513603 -4.38294220 14.97918797
20.67781448 -4.21391582 14.20299530
23.56609726 -4.65254545 14.98241234
24.42135620 -4.84230614 14.96673107
23.98397064 -4.84069967 14.89274406
21.44755554 -4.68871498 13.69649315
23.29791832 -4.86318731 14.26973724
23.66481781 -4.75311136 14.87349129
19.43707848 -4.84231043 14.61379814
25.87803841 -4.67643833 14.55010319
20.88699341 -4.51998663 13.70756054
19.44097519 -5.16591167 14.27514648
25.32304955 -5.02322769 14.08889103
26.06611252 -4.93838930 14.14335155
18.96804619 -5.33488512 13.90618992
23.53022003 -5.02967739 13.93902206
25.63316154 -5.07371330 13.87883377
22.89325142 -5.08900404 13.75105095
19.70862961 -5.54114723 13.96034622
19.35345650 -5.64568472 13.86812878
22.96313858 -5.22360611 13.38786793
25.72723770 -5.24952793 13.28590488
22.72866058 -5.16396379 13.37513161
22.65113258 -5.14302635 13.45779800
19.27476501 -5.58407640 13.92508125
22.78946686 -5.24302864 13.21125221
20.02426720 -5.85157776 13.77570152
24.35420227 -5.39477587 13.26110077
18.78562355 -6.12680244 13.49764729
25.37937927 -5.42365837 12.81423378
24.21349335 -5.46884727 12.67628193
19.55646896 -6.24434233 13.50851631
20.17797661 -6.32625675 13.41726208
20.40394974 -6.15730429 13.69719124
24.76882172 -5.59166002 12.55437851
19.05471992 -6.40052843 13.23515415
20.27342224 -6.47699451 13.24984360
26.19445419 -5.27576447 11.35821056
19.47318649 -6.48473263 13.23854828
20.78032303 -6.49012327 13.29572105
20.38468361 -6.54942989 13.16685772
20.54426765 -6.59835148 13.15237236
19.52162361 -6.79093456 12.95407867
19.05445099 -6.67505312 12.97103214
19.72292519 -6.98143673 12.78308868
21.78398323 -6.99311495 12.85645771
21.19301224 -7.28604603 12.66554546
21.78466797 -7.34186649 12.56659794
26.65396118 -6.36859560 11.14086437
20.24866676 -7.13062239 12.66983509
20.99031830 -7.46523476 12.45447540
22.46298409 -7.40653181 12.46564198
18.73425674 -7.44209242 12.22819042
19.10965538 -7.32689095 12.38691807
20.70306206 -7.57441187 12.30949593
25.21776962 -6.11257696 10.71900558
21.12050247 -7.59595537 12.29715061
22.07730865 -7.44851446 12.46465397
20.85984802 -7.73170805 12.15476513
19.55599785 -7.78766155 12.05070019
20.81095123 -8.25874805 11.68256855
20.96096039 -8.13173008 11.81530952
19.72658730 -8.04115963 11.87110901
23.35639000 -8.05116558 11.46166515
22.08446884 -8.16473293 11.51843071
22.83215714 -8.16117191 11.37141132
19.06085968 -8.31347942 11.60539246
19.76870728 -8.27388477 11.68757915
21.05641174 -8.44187450 11.44877148
23.62276840 -8.22996140 10.99823761
22.31198692 -8.42157555 11.00132275
22.62236404 -8.60006714 10.45413208
19.13309479 -8.66621876 11.37560749
21.96056175 -8.45754433 11.05457783
21.88594246 -8.57638645 10.91928196
19.00532341 -9.03480625 11.21708965
19.64293289 -8.75345039 11.46392918
20.31857300 -9.11194324 10.99084377
20.70393753 -8.86536312 11.11315823
23.90401077 -8.53366280 10.21680641
23.69405556 -8.64001942 10.03674793
20.45313454 -9.33138275 10.65832615
19.68755913 -9.48704433 10.89871311
20.12599182 -9.49256039 10.74974251
19.10457230 -9.81324482 10.84839630
19.97356606 -9.85538673 10.48694706
24.35295868 -8.49056530 7.85703802
24.74102974 -8.77980900 6.95124865
24.05386734 -9.84744644 7.83221531
32.03658295 -25.94151115 15.62091351
37.21012497 -25.57965469 15.80612659
33.73265457 -25.61078835 14.16414261
35.47944641 -25.46444702 14.90865326
36.09664917 -25.49468994 15.24230766
36.97701645 -25.10313416 15.25817108
33.78059006 -25.45677185 14.02674675
35.63192749 -25.08909225 14.59365082
37.74974442 -25.20394135 15.68433189
34.50005722 -25.24805641 14.20557690
39.48905182 -24.76969147 16.42329979
34.83762360 -25.46006584 14.57717037
33.47072601 -25.24452972 13.64592838
38.37034607 -24.94279480 15.74424171
38.12344742 -24.95079422 15.60533905
34.71681976 -25.09020615 14.14861202
36.37005234 -24.75981712 14.64021492
34.36310959 -24.61068916 13.53818703
37.12462997 -24.64786720 14.89473534
33.66170883 -24.95927429 13.49128914
37.51686859 -24.57533264 14.98665428
33.03692245 -24.78931618 12.89735031
37.56630325 -24.88583946 15.31445503
36.98238754 -24.67877388 14.85359764
35.84525681 -24.56785393 14.20398140
35.19684219 -24.38030243 13.71175289
33.44676590 -24.62350655 12.97636700
15.13828659 -22.15901566 13.37764454
38.47276688 -24.20359421 15.14139938
37.38921356 -24.32633209 14.68395901
14.97066212 -21.93977928 13.20399475
35.83314514 -24.16073227 13.79733276
34.57382965 -23.90256882 12.95238876
34.37887955 -24.07026291 13.02673817
15.16910172 -21.86591721 12.89781475
14.62313938 -21.81303215 13.38669586
40.51048660 -24.08255005 15.99473763
36.67846298 -24.39067078 14.44006634
34.04677963 -24.24451256 13.01629448
33.20670700 -24.54715157 12.74652100
15.16032791 -21.73617554 12.70879269
36.67754364 -24.34309959 14.39516926
33.35089874 -24.08375740 12.42330837
38.23758316 -23.96390152 14.71167374
37.92099380 -24.08664703 14.65216351
37.64885712 -24.00308228 14.47778988
34.84451294 -23.96351242 13.13727951
32.17650986 -24.04608536 11.99987984
36.31658554 -24.06782532 13.93682194
35.04975128 -23.50878143 12.80421352
40.70855713 -23.63794136 15.62267017
36.34653473 -23.46671677 13.34879971
36.91688156 -23.59170341 13.74526215
34.00329971 -23.80008698 12.48852730
15.41338825 -21.44882965 11.98207092
15.04427147 -21.02405357 12.08017349
14.70848465 -20.36109924 11.83505917
40.99333572 -23.55792236 15.67410183
36.09688568 -23.31633377 13.10138035
35.82318497 -23.04360580 12.74606895
33.53420639 -23.73645020 12.20627308
40.07736206 -23.41601563 15.09126663
37.82545471 -23.23231316 13.81894588
37.33005905 -23.45597267 13.81703663
37.64949799 -22.94191933 13.48066425
38.43807220 -23.08589172 14.13320065
39.78817368 -23.17690277 14.93448830
32.25014114 -23.33329391 11.40247250
14.29182625 -20.73798370 12.58370495
41.14388275 -23.15933609 15.40551472
40.44788742 -23.25190353 14.97952271
35.25998688 -22.91224670 12.36556149
33.67316055 -22.90256119 11.58452606
36.80062485 -23.11412621 13.23470783
37.25164032 -23.29438019 13.62631321
34.14545059 -23.35069847 12.20561028
32.63967896 -22.98637009 11.05245686
40.13413239 -22.88458061 14.72141743
34.87188339 -22.80228806 12.10473728
41.92167282 -22.74424171 15.47321320
36.88854599 -22.96101952 13.13243294
15.56949043 -20.61413956 11.03300571
36.97162628 -22.60117149 12.83764648
32.37202072 -22.93284988 10.90064335
32.25731659 -22.95927238 11.03691959
14.94900894 -20.23630333 11.43480492
40.84548569 -22.99831009 14.94871521
40.45788956 -22.64500809 14.53989315
14.39346886 -19.77604103 11.57564068
34.10300446 -22.73911095 11.68096924
33.33638000 -22.69652367 11.17902184
34.67849350 -23.02965546 12.19315910
15.25666142 -20.39421844 11.20915318
40.93566895 -22.38029289 14.50016117
37.60653687 -22.65014076 13.16220379
15.23628330 -19.99609184 10.88173389
41.76344681 -22.55881119 15.20582104
34.62982559 -22.20409584 11.53256130
38.94568253 -22.39073372 13.82500172
36.87791824 -22.26387405 12.48297882
37.39624786 -22.51776505 12.93739128
35.80495071 -22.49942780 12.25950050
36.16868973 -22.49091148 12.42503166
35.33501816 -22.47093201 12.03021908
34.20823288 -22.42644310 11.48266792
42.23836136 -22.09601974 15.07087803
39.48716736 -22.35919380 13.89181137
37.26545334 -21.84240913 12.24296093
36.55205154 -22.32925797 12.42341709
38.09243011 -22.28476715 13.01248550
38.29848099 -21.99862289 12.85479164
37.55854034 -21.69339561 12.21478653
41.59941864 -22.09445190 14.68834019
40.02593613 -22.04767799 13.76424599
32.88122177 -22.42305565 10.59648132
41.63573074 -22.32831764 14.93018055
32.32497025 -22.20042229 10.40058041
33.29903030 -22.24719810 10.81682873
32.31484985 -21.91400528 10.19837093
42.69089127 -22.12452507 15.43052101
31.69556427 -21.92878723 11.20877743
41.69386292 -21.68281174 14.30496883
40.82980347 -22.09040260 14.17225456
36.74160004 -21.96093369 12.18016624
34.55588913 -21.95238876 11.32069778
31.51922989 -21.55659866 10.69594383
36.53446198 -21.65250778 11.86749077
34.12573624 -21.86568642 11.04181957
40.10820389 -21.89303207 13.66486454
37.08761597 -21.77577972 12.13679409
33.52566910 -22.09319878 10.84535408
33.18562317 -21.82391739 10.35606766
35.71551514 -21.72513771 11.63911152
34.76165009 -21.67067528 11.20971489
33.82238770 -21.62137032 10.68978691
38.91476440 -21.79582596 13.06454563
36.27982712 -21.64088821 11.78022957
35.68535614 -21.65488625 11.57835007
35.49241638 -20.94651413 11.06672955
35.01676941 -21.21179199 11.01712132
33.21343613 -21.56059837 10.15451717
32.02465820 -21.08849907 10.43915749
38.27870560 -21.39835930 12.36937714
38.72605515 -21.24658203 12.47824478
35.75525665 -21.07063103 11.25497341
41.75952911 -21.46235275 14.12191677
39.44198227 -21.40734100 12.97761059
34.16888046 -21.14484596 10.57234383
41.04370117 -20.87803650 13.19346428
41.04628372 -21.21822166 13.52064705
37.80995560 -20.96008492 11.88259315
37.49539948 -21.50978088 12.07794857
40.26613998 -21.08189774 13.03495312
40.77650452 -20.77218246 12.98712921
36.91192627 -21.31852150 11.77870560
34.83657455 -20.80091858 10.67599583
41.47054672 -20.88021851 13.41423416
41.64902496 -21.04615021 13.66020489
39.04878998 -20.93169022 12.37617874
37.25746918 -20.51634789 11.40168858
36.35559082 -20.97266769 11.36467838
36.67631149 -21.16889381 11.58646679
35.25909805 -20.63451767 10.76957512
33.72694397 -20.60813141 9.82978916
32.15892792 -20.33832169 9.73653221
39.31058502 -20.83372498 12.40787315
39.28210449 -20.39027977 12.07638264
35.65701294 -20.35051727 10.77840900
34.51675797 -20.27487183 10.15703773
37.22560120 -20.32636070 11.27385139
39.82233810 -20.81792450 12.63936138
38.35031891 -20.22933578 11.61621284
35.93856430 -20.46622849 10.93385983
33.48292923 -20.37394714 9.40422153
31.78786850 -19.97256851 9.01488590
36.90541077 -19.85703468 10.90935326
35.52666473 -19.94368553 10.47894764
35.02708435 -20.08388519 10.34084034
34.67206573 -19.86474609 9.94917202
32.41181946 -19.65473175 9.29956913
37.14173889 -19.72230339 10.91756725
36.47377777 -20.01945305 10.84983444
38.58708191 -19.84846497 11.45392513
35.96500397 -19.67730713 10.50120640
34.77826691 -19.62671852 9.83948231
32.37977982 -19.50279999 9.14337635
38.82624435 -19.29137039 11.21970558
38.28002548 -19.32319450 11.06404400
35.29325867 -19.45569801 10.06255245
34.88092804 -19.25559044 9.62745476
37.69042969 -19.66912079 11.05082512
32.29226303 -19.15227699 8.77105141
35.78378677 -19.25826836 10.17425728
36.32981873 -19.32376099 10.43500805
34.57570267 -19.26261902 9.32202530
37.82461166 -19.16257477 10.82441521
35.96332932 -19.32897568 10.29895687
35.96556473 -19.31363106 10.29020023
36.67315292 -18.65163231 10.10328674
32.59578323 -18.26367760 8.57614899
35.42016983 -18.64244270 9.35799980
33.03778076 -18.49375534 9.03757000
35.67628479 -18.35786438 9.23546410
35.71536255 -17.61657715 8.66329384
36.70848083 -17.82484436 8.76416588
35.37562180 -16.93014526 8.06755257
43.47364426 -16.82392693 10.47320747
43.33423233 -16.88663292 10.52183437
46.30591583 -16.54227638 11.64710522
45.77863312 -16.48936844 11.62880516
46.32115936 -16.09943771 11.42375946
45.58745956 -16.00949287 11.49727726
41.62038422 -12.98267841 9.22754955
42.30493546 -12.34746742 9.14869404
41.39131546 -11.78535843 8.95693398
42.07376099 -11.92143345 9.04175663
41.68560410 -11.69592857 8.96345997
41.67805099 -11.44469261 8.90046215
42.10587692 -11.44082642 8.93550968
40.94728851 -10.77343845 7.64463329
46.00017929 -10.92252922 8.39641380
45.58485031 -10.87917805 8.35534477
39.68583679 -10.18650055 7.84254169
46.26970291 -10.47412968 7.74377155
45.79561996 -10.00814152 7.95598936
44.36948013 31.15156555 4.71882296
44.88846970 30.72639084 4.89234829
45.19433594 30.34958839 4.89423180
57.42540741 16.83578491 5.98850060
56.64610291 16.64202881 5.85207272
58.20235443 16.73839760 5.82927275
55.97190857 16.36320114 5.76933956
56.66178513 16.45522499 5.67426729
56.60460281 16.20630264 5.51169634
56.14685059 16.12324524 5.52428341
55.39885712 15.60293674 5.23586655
52.92294693 15.04719830 5.29595995
54.61952209 15.38140488 5.13639498
55.04031754 15.22698593 4.96902847
58.35441208 15.01574039 5.48268318
52.84147644 14.90060997 5.16698551
53.27477646 14.78270054 4.94203234
53.44911575 14.68357944 4.83684492
58.06626129 14.74546814 5.16971493
52.18250656 14.60702801 5.24553680
52.68867493 14.39143372 4.83086777
58.15855408 14.57583141 4.90614414
54.00938797 14.74550533 4.78024864
57.31933594 14.25983047 4.90366459
51.64007950 13.96876812 4.96169662
51.97516632 13.81834698 4.69476700
52.70532990 14.24516964 4.71653605
53.19905853 14.13583183 4.49890661
52.86568451 14.02094555 4.50488091
55.39319229 12.95316792 4.41072178
51.82182312 13.15543842 4.25885296
51.97686768 12.99534321 4.15612221
54.25661850 12.19912434 4.16238356
64.25511169 5.15312195 4.06474638
64.60367584 -0.83968759 11.33041191
64.36169434 -0.49344820 10.90413570
65.72507477 -0.19535978 11.67428684
65.14872742 -0.01942678 11.11483288
65.23753357 0.10326356 11.08480835
65.99101257 0.46970433 11.38307476
66.16542053 0.66333497 11.36340714
66.00360870 0.83167350 11.15334797
67.22209167 1.27363265 11.89087486
66.20066833 1.40310502 10.91191578
66.69975281 1.63237941 11.12617016
66.20468140 1.66780961 10.75676823
67.15583038 1.77598858 11.47548389
67.10355377 1.96053290 11.30288124
66.90464020 1.82932425 11.18127060
66.52754974 2.50060773 10.56040764
63.60896301 2.18344975 9.15478706
63.12091827 2.30692601 8.87631321
66.87959290 2.03660345 11.05578232
62.97977829 2.17862010 8.84226036
62.54553223 2.10446000 8.68203354
62.96672440 2.86058736 8.62330723
62.97652054 3.02721906 8.56639671
63.18566132 3.57623553 8.45869923
63.30130768 5.08527851 7.98821115
60.55106354 8.78110695 5.98407936
59.72956467 8.93116474 5.54983187
62.56353378 8.95600891 6.87632990
60.46232224 9.11323643 5.76739120
36.14284515 -6.37110186 9.99516106
35.54543686 -6.33414698 11.42093086
35.49178314 -5.63185596 11.81454372
36.24327469 -6.02686024 10.07811260
37.56038284 -5.73515511 10.11066055
36.86982346 -5.54410553 10.31949997
39.08314514 -5.59251165 9.90040588
38.07815933 -5.54038191 10.09250927
33.60236740 -5.22644329 12.79344559
36.45274734 -5.20119905 10.43293571
33.55106354 -5.20524359 12.81372643
41.35163498 -6.06372929 8.86501408
40.39366913 -5.87729788 9.61893082
40.37237549 -5.74413347 9.73937702
38.68502426 -5.19334698 10.15397167
37.98178101 -4.90248013 10.40212917
37.03747559 -4.98382711 10.53470612
33.99366760 -4.95510864 12.68871498
33.15885925 -4.58924437 12.40807247
37.86512375 -4.85649300 10.44151497
40.77108383 -5.32048893 9.51003838
38.98796844 -5.00317335 10.28443623
37.16883087 -4.81562233 10.58811188
34.28143311 -4.70332384 12.40805244
39.74016190 -5.22986698 9.72080040
35.16373444 -4.65566969 12.41192341
36.56486511 -4.83346653 10.61596203
36.14792633 -4.28862238 11.08939934
41.40087891 -5.05453539 9.26992035
40.80903625 -5.01131153 9.52857494
37.96161652 -4.84063911 10.43779087
33.86625290 -4.04902983 12.08161736
33.09026718 -4.22804928 12.31009483
44.38197708 -5.37994862 8.34001637
43.41863251 -5.41084576 8.61570644
40.06136703 -4.76656818 9.64630890
39.71874237 -4.65580034 9.93862343
38.85543823 -4.70697689 10.42071533
32.97359467 -3.93595719 12.50128365
32.62884140 -3.82645059 12.82682419
39.46353531 -4.56063700 10.17274284
37.43031693 -4.41699362 10.78619289
